ply
format ascii 1.0
element vertex 724
property double x
property double y
property double z
property uchar red
property uchar green
property uchar blue
end_header
0.891646167234345 -0.936636281827399 5.179687500000000 177 174 163
0.891646167234345 -0.909889698140558 5.179687500000000 177 174 163
0.891646167234345 -0.883143114453717 5.179687500000000 177 174 162
0.891646167234345 -0.856396530766875 5.179687500000000 177 174 162
0.890973734227381 -0.829024268386912 5.175781250000000 176 173 162
0.891646167234345 -0.802903363393193 5.179687500000000 175 172 161
0.891646167234345 -0.776156779706351 5.179687500000000 175 172 161
0.891646167234345 -0.749410196019510 5.179687500000000 175 172 161
0.891646167234345 -0.722663612332669 5.179687500000000 174 171 158
0.892318600241309 -0.696441852950990 5.183593750000000 174 171 158
0.892318600241309 -0.669675098386557 5.183593750000000 173 170 159
0.892318600241309 -0.642908343822124 5.183593750000000 173 170 159
0.891646167234345 -0.615677277585303 5.179687500000000 175 170 159
0.892318600241309 -0.589374834693257 5.183593750000000 174 169 158
0.891646167234345 -0.562184110211621 5.179687500000000 172 169 158
0.890973734227381 -0.535033727485168 5.175781250000000 171 168 157
0.890301301220417 -0.507923686513899 5.171875000000000 171 168 157
0.890973734227381 -0.481580901866669 5.175781250000000 171 168 157
0.890301301220417 -0.454511202650584 5.171875000000000 170 167 156
0.889628868213453 -0.427481845189682 5.167968750000000 170 167 156
0.888956435206489 -0.400492829483964 5.164062500000000 170 167 156
0.888284002199525 -0.373544155533431 5.160156250000000 169 166 155
0.887611569192561 -0.346635823338080 5.156250000000000 169 166 155
0.885594270171669 -0.319282968860161 5.144531250000000 168 165 154
0.882904538143813 -0.291828878506509 5.128906250000000 167 164 153
0.880214806115956 -0.264536155173592 5.113281250000000 166 163 152
0.878197507095064 -0.237586718247510 5.101562500000000 165 162 151
0.874835342060244 -0.210434809569963 5.082031250000000 164 161 150
0.876852641081136 -0.184617230715669 5.093750000000000 163 160 149
0.878869940102028 -0.158678626595825 5.105468750000000 159 156 145
0.874835342060244 -0.131707874328830 5.082031250000000 153 150 139
0.863403980941855 -0.104087457613385 5.015625000000000 147 144 133
0.866093712969711 -0.078431627267600 5.031250000000000 144 141 130
0.835834227656328 -0.050618990996163 4.855468750000000 130 125 112
0.354708411173542 -0.010841372730357 2.060546875000000 85 81 71
0.352018679145686 -0.000199708849542 2.044921875000000 57 55 46
0.348656514110866 0.010260798620719 2.025390625000000 36 37 29
0.348320297607384 0.020699418518407 2.023437500000000 34 35 28
0.348992730614348 0.031208064256007 2.027343750000000 37 38 31
0.347647864600420 0.041516145681008 2.019531250000000 37 38 31
0.347984081103902 0.051994725846106 2.021484375000000 37 38 31
0.348656514110866 0.062553798777685 2.025390625000000 37 38 31
0.349328947117830 0.073153213464447 2.029296875000000 37 38 31
0.349665163621312 0.083712477139913 2.031250000000000 37 38 31
0.349665163621312 0.094201333487694 2.031250000000000 37 38 31
0.350001380124794 0.104790853479548 2.033203125000000 37 38 31
0.350001380124794 0.115289795266124 2.033203125000000 37 38 31
0.350001380124794 0.125788737052701 2.033203125000000 37 38 31
0.349665163621312 0.136156758878818 2.031250000000000 38 39 32
0.349665163621312 0.146645615226599 2.031250000000000 38 39 32
0.349328947117830 0.156983380736327 2.029296875000000 38 39 32
0.349328947117830 0.167462151645312 2.029296875000000 38 39 32
0.348992730614348 0.177769660838653 2.027343750000000 38 39 32
0.348656514110866 0.188056999154402 2.025390625000000 38 39 32
0.348656514110866 0.198515599185795 2.025390625000000 38 39 32
0.348656514110866 0.208974199217188 2.025390625000000 38 39 32
0.348656514110866 0.219432799248581 2.025390625000000 38 39 32
0.348320297607384 0.229669710370350 2.023437500000000 38 39 32
0.347647864600420 0.239654676266108 2.019531250000000 37 38 31
0.346975431593456 0.249599300406682 2.015625000000000 37 38 31
0.345630565579528 0.258999692340048 2.007812500000000 36 37 30
0.344958132572564 0.268843462092662 2.003906250000000 28 28 21
0.338065694251182 0.273612742173426 1.963867187500000 124 117 107
0.306125126420389 0.256944504354790 1.778320312500000 210 203 187
0.291667816770662 0.253558956187090 1.694335937500000 211 205 186
0.279564022645308 0.251422667222879 1.624023437500000 211 205 186
0.269645635792589 0.250591202747478 1.566406250000000 212 206 187
0.259222924184646 0.248680882436741 1.505859375000000 217 211 192
0.251994269359782 0.249305237916259 1.463867187500000 217 211 192
0.245101831038400 0.249838633702727 1.423828125000000 215 209 190
0.238209392717019 0.249958526498561 1.383789062500000 218 212 193
0.231653170899119 0.250027801356528 1.345703125000000 214 208 189
0.225769382088184 0.250449685084580 1.311523437500000 213 207 188
0.220389918032471 0.251093162350312 1.280273437500000 216 210 191
0.215346670480241 0.251807046943729 1.250976562500000 214 208 189
0.210471531179751 0.252419981777243 1.222656250000000 216 210 191
0.205932608382744 0.253153751132422 1.196289062500000 213 207 188
0.201561793837477 0.253826912482881 1.170898437500000 212 206 188
0.197022871040470 0.254021110862477 1.144531250000000 212 206 188
0.192820164746945 0.254386570957716 1.120117187500000 212 206 189
0.188953674956901 0.254953549084988 1.097656250000000 211 205 188
0.185255293418599 0.255520431840316 1.076171875000000 211 205 188
0.181220695376815 0.255391610062611 1.052734375000000 211 203 187
0.177690422090253 0.255746603231281 1.032226562500000 210 200 184
0.174160148803692 0.255889802185237 1.011718750000000 211 202 186
0.170966092020613 0.256325288120387 0.993164062500000 218 209 193
0.167519872859922 0.256183525742386 0.973144531250000 207 199 182
0.164577978454454 0.256621389979320 0.956054687500000 213 207 190
0.161720138174857 0.257016343415400 0.939453125000000 211 204 187
0.159030406147001 0.257512055867496 0.923828125000000 212 203 187
0.156088511741533 0.257430520006440 0.906738281250000 212 203 187
0.153398779713677 0.257595934337969 0.891113281250000 211 202 186
0.150793101811691 0.257743651465633 0.875976562500000 212 203 187
0.148271478035576 0.257881235468530 0.861328125000000 211 202 186
0.145749854259460 0.257867537889487 0.846679687500000 213 204 188
0.143396338735086 0.258005026520440 0.833007812500000 210 201 185
0.141210931462453 0.258308829519583 0.820312500000000 215 206 190
0.139109578315690 0.258637798429744 0.808105468750000 211 202 186
0.136840116917187 0.258523103404827 0.794921875000000 209 200 184
0.134738763770424 0.258594893625692 0.782714843750000 212 203 187
0.132805518875402 0.258868297250532 0.771484375000000 210 201 185
0.130956328106251 0.259192080383380 0.760742187500000 209 200 184
0.128939029085359 0.259067156861752 0.749023437500000 201 192 176
0.127173892442078 0.259335422395250 0.738769531250000 211 202 186
0.125408755798797 0.259497790821391 0.728515625000000 211 202 186
0.123727673281387 0.259730709633132 0.718750000000000 208 199 183
0.121878482512236 0.259504836351601 0.708007812500000 210 201 185
0.120281454120696 0.259712493880381 0.698730468750000 209 200 184
0.118600371603286 0.259640328168544 0.688964843750000 212 203 187
0.117087397337617 0.259840373932255 0.680175781250000 204 195 179
0.115490368946078 0.259760596455350 0.670898437500000 203 194 178
0.113977394680408 0.259776582961035 0.662109375000000 212 203 187
0.112548474540610 0.259895897528406 0.653808593750000 212 203 187
0.111203608526682 0.260126104236562 0.645996093750000 207 198 182
0.109774688386883 0.260076487704101 0.637695312500000 204 195 179
0.108513876498825 0.260344467121769 0.630371093750000 208 199 183
0.107084956359027 0.260128440849176 0.622070312500000 207 198 182
0.105824144470969 0.260240095965507 0.614746093750000 206 197 181
0.104395224331171 0.259857659952780 0.606445312500000 205 196 180
0.103218466568983 0.260024737296517 0.599609375000000 206 197 181
0.102041708806796 0.260121216568683 0.592773437500000 196 187 171
0.100864951044609 0.260147097769276 0.585937500000000 207 198 182
0.099604139156552 0.259883070290459 0.578613281250000 198 189 173
0.098343327268494 0.259543402020671 0.571289062500000 206 197 181
0.097166569506307 0.259352446287152 0.564453125000000 209 200 184
0.096157919995861 0.259544641855936 0.558593750000000 208 199 183
0.094897108107803 0.258988136652036 0.551269531250000 209 200 184
0.093720350345616 0.258587908063501 0.544433593750000 200 191 175
0.092543592583429 0.258117081403395 0.537597656250000 210 201 185
0.091534943072983 0.258049576923183 0.531738281250000 212 203 187
0.090526293562537 0.257921559810195 0.525878906250000 203 194 178
0.089517644052091 0.257733030064432 0.520019531250000 203 194 177
0.088424940415774 0.257239463481063 0.513671875000000 203 194 178
0.087416290905328 0.256927387110049 0.507812500000000 207 198 182
0.086491695520752 0.256804365030487 0.502441406250000 208 199 183
0.085483046010306 0.256373784753621 0.496582031250000 206 197 182
0.084684531814536 0.256519215953044 0.491943359375000 202 193 179
0.083970071744637 0.256873872321512 0.487792968750000 203 194 180
0.083045476360062 0.256536534667536 0.482421875000000 205 196 181
0.082288989227227 0.256668074545629 0.478027343750000 203 194 180
0.899692446038176 -2.280066941909917 5.074218750000000 118 115 109
0.904540673230068 -2.266010510642789 5.101562500000000 118 116 109
0.907311088768292 -2.246526968840121 5.117187500000000 120 117 111
0.909388900421960 -2.225187324811227 5.128906250000000 107 104 98
0.910081504306515 -2.200377526860981 5.132812500000000 112 109 102
0.911466712075627 -2.177181780605859 5.140625000000000 120 117 110
0.912851919844739 -2.153905350840369 5.148437500000000 122 119 112
0.914237127613851 -2.130548237564512 5.156250000000000 123 120 113
0.914929731498407 -2.105516559960755 5.160156250000000 123 120 113
0.916314939267519 -2.082018250541755 5.167968750000000 126 123 116
0.917007543152075 -2.056885718550038 5.171875000000000 127 124 117
0.917007543152075 -2.030179476618380 5.171875000000000 130 127 120
0.917700147036631 -2.004986431993888 5.175781250000000 130 127 120
0.917007543152075 -1.976766992755065 5.171875000000000 131 128 121
0.917007543152075 -1.950060750823408 5.171875000000000 133 130 123
0.917007543152075 -1.923354508891750 5.171875000000000 134 132 123
0.917007543152075 -1.896648266960092 5.171875000000000 136 133 126
0.917007543152075 -1.869942025028435 5.171875000000000 138 136 127
0.916314939267519 -1.841843611055163 5.167968750000000 140 138 129
0.916314939267519 -1.815157540001098 5.167968750000000 141 139 131
0.916314939267519 -1.788471468947032 5.167968750000000 143 140 133
0.916314939267519 -1.761785397892966 5.167968750000000 145 143 134
0.916314939267519 -1.735099326838901 5.167968750000000 147 145 136
0.915622335382963 -1.707121938131180 5.164062500000000 149 147 138
0.915622335382963 -1.680456037954707 5.164062500000000 151 149 140
0.915622335382963 -1.653790137778233 5.164062500000000 154 152 143
0.916314939267519 -1.628355042622638 5.167968750000000 155 153 144
0.916314939267519 -1.601668971568572 5.167968750000000 157 155 146
0.916314939267519 -1.574982900514506 5.167968750000000 160 158 149
0.916314939267519 -1.548296829460441 5.167968750000000 162 160 151
0.916314939267519 -1.521610758406375 5.167968750000000 165 163 154
0.916314939267519 -1.494924687352309 5.167968750000000 168 165 155
0.916314939267519 -1.468238616298244 5.167968750000000 172 167 156
0.916314939267519 -1.441552545244178 5.167968750000000 174 169 158
0.917007543152075 -1.415935912190256 5.171875000000000 175 170 159
0.917007543152075 -1.389229670258599 5.171875000000000 176 171 160
0.916314939267519 -1.361494332081981 5.167968750000000 176 171 160
0.917007543152075 -1.335817186395283 5.171875000000000 177 172 161
0.917007543152075 -1.309110944463626 5.171875000000000 179 174 163
0.917007543152075 -1.282404702531968 5.171875000000000 179 174 163
0.917007543152075 -1.255698460600311 5.171875000000000 179 174 163
0.917007543152075 -1.228992218668653 5.171875000000000 179 174 163
0.917007543152075 -1.202285976736996 5.171875000000000 179 174 163
0.917700147036631 -1.176467634907155 5.175781250000000 179 174 163
0.917700147036631 -1.149741222097905 5.175781250000000 179 175 164
0.917700147036631 -1.123014809288656 5.175781250000000 177 174 163
0.917007543152075 -1.095461009010365 5.171875000000000 177 174 163
0.917700147036631 -1.069561983670157 5.175781250000000 177 174 163
0.917007543152075 -1.042048525147050 5.171875000000000 177 174 163
0.917007543152075 -1.015342283215392 5.171875000000000 177 174 163
0.917700147036631 -0.989382745242409 5.175781250000000 176 173 162
0.917700147036631 -0.962656332433159 5.175781250000000 177 174 163
0.917700147036631 -0.935929919623910 5.175781250000000 177 174 163
0.917700147036631 -0.909203506814660 5.175781250000000 177 174 163
0.917700147036631 -0.882477094005411 5.175781250000000 177 174 162
0.917700147036631 -0.855750681196161 5.175781250000000 177 173 162
0.917007543152075 -0.828398589693790 5.171875000000000 176 173 162
0.917700147036631 -0.802297855577662 5.175781250000000 175 173 161
0.917700147036631 -0.775571442768413 5.175781250000000 174 173 160
0.917700147036631 -0.748845029959163 5.175781250000000 175 172 160
0.917700147036631 -0.722118617149914 5.175781250000000 174 171 158
0.918392750921187 -0.695917028645827 5.179687500000000 174 171 159
0.918392750921187 -0.669170444958986 5.179687500000000 173 170 159
0.918392750921187 -0.642423861272145 5.179687500000000 173 170 159
0.918392750921187 -0.615677277585303 5.179687500000000 173 170 159
0.918392750921187 -0.588930693898462 5.179687500000000 172 169 158
0.917700147036631 -0.561760140294417 5.175781250000000 172 169 158
0.917700147036631 -0.535033727485168 5.175781250000000 171 168 157
0.917007543152075 -0.507923686513899 5.171875000000000 171 168 157
0.917007543152075 -0.481217444582241 5.171875000000000 171 168 157
0.916314939267519 -0.454167916243748 5.167968750000000 170 167 156
0.915622335382963 -0.427158729660438 5.164062500000000 170 167 156
0.915622335382963 -0.400492829483964 5.164062500000000 169 166 155
0.914929731498407 -0.373544155533431 5.160156250000000 169 166 155
0.913544523729295 -0.346373220441612 5.152343750000000 168 165 154
0.912851919844739 -0.319525400879038 5.148437500000000 168 165 154
0.910081504306515 -0.292051139647794 5.132812500000000 167 164 153
0.908003692652848 -0.264940335700977 5.121093750000000 166 163 152
0.906618484883736 -0.238132476405813 5.113281250000000 165 162 151
0.903848069345512 -0.211081803603998 5.097656250000000 163 160 149
0.895536822730840 -0.183059876775583 5.050781250000000 161 158 147
0.907311088768292 -0.159042846855800 5.117187500000000 157 154 143
0.900385049922732 -0.131606638453097 5.078125000000000 146 143 131
0.902462861576400 -0.105627692578069 5.089843750000000 129 125 109
0.889303387769837 -0.078188050785402 5.015625000000000 125 120 103
0.893459011077173 -0.052532983415165 5.039062500000000 122 116 98
0.862291836272155 -0.025587694880180 4.863281250000000 118 112 96
0.759786461357875 -0.000418492087771 4.285156250000000 118 113 97
0.363963341334151 0.010399324349447 2.052734375000000 105 101 88
0.359461416084537 0.020739378785818 2.027343750000000 56 54 45
0.360846623853649 0.031328326546010 2.035156250000000 36 35 29
0.360846623853649 0.041837353771383 2.035156250000000 36 37 30
0.358768812199981 0.052044962296199 2.023437500000000 37 38 31
0.358768812199981 0.062493476888796 2.023437500000000 37 38 31
0.359115114142259 0.073012398809078 2.025390625000000 37 38 31
0.359461416084537 0.083551491606952 2.027343750000000 37 38 31
0.359461416084537 0.094020177077141 2.027343750000000 37 38 31
0.359807718026815 0.104589526191402 2.029296875000000 37 38 31
0.360154019969093 0.115179046183256 2.031250000000000 37 38 31
0.360500321911371 0.125788737052701 2.033203125000000 38 39 32
0.360154019969093 0.136156758878818 2.031250000000000 38 39 32
0.360154019969093 0.146645615226599 2.031250000000000 38 39 32
0.359461416084537 0.156832289898275 2.027343750000000 38 39 32
0.359461416084537 0.167300975368464 2.027343750000000 38 39 32
0.359115114142259 0.177598399123009 2.025390625000000 38 39 32
0.359115114142259 0.188056999154402 2.025390625000000 38 39 32
0.358768812199981 0.198324166592559 2.023437500000000 38 39 32
0.358422510257703 0.208571163153124 2.021484375000000 38 39 32
0.358422510257703 0.219009592306925 2.021484375000000 38 39 32
0.358076208315425 0.229226332551103 2.019531250000000 38 39 32
0.357383604430869 0.239191127569268 2.015625000000000 38 39 32
0.356691000546313 0.249115580832250 2.011718750000000 37 38 31
0.355652094719479 0.258747747114036 2.005859375000000 36 37 30
0.354959490834923 0.268581431427855 2.001953125000000 28 28 21
0.347687150047086 0.273204568018021 1.960937500000000 125 118 108
0.314788465530678 0.256521202041190 1.775390625000000 211 205 188
0.299897482012725 0.253120525715297 1.691406250000000 209 203 184
0.287257461119579 0.250817922382896 1.620117187500000 211 205 186
0.277387855764657 0.250278744888691 1.564453125000000 214 208 189
0.266652495554040 0.248358339139158 1.503906250000000 217 211 192
0.259207003795063 0.248972609179880 1.461914062500000 213 207 189
0.252107813978365 0.249495919527552 1.421875000000000 214 208 189
0.245008624161667 0.249605726884590 1.381835937500000 217 211 192
0.238428887258385 0.249846358830145 1.344726562500000 215 209 190
0.232368603268520 0.250263199838799 1.310546875000000 214 208 190
0.227000923163212 0.251093162350312 1.280273437500000 215 209 190
0.221633243057903 0.251610476259152 1.250000000000000 212 206 187
0.216611864894873 0.252218368373268 1.221679687500000 215 209 191
0.211936788674120 0.252947095009048 1.195312500000000 214 208 190
0.207434863424506 0.253615213640110 1.169921875000000 213 207 188
0.202759787203754 0.253804369300307 1.143554687500000 210 204 187
0.198604163896418 0.254386570957716 1.120117187500000 214 208 191
0.194621691560221 0.254953549084988 1.097656250000000 205 198 181
0.190812370195164 0.255520431840316 1.076171875000000 210 202 186
0.186656746887828 0.255391610062611 1.052734375000000 214 205 189
0.182847425522770 0.255504648072122 1.031250000000000 212 203 187
0.179384406099990 0.255889802185237 1.011718750000000 210 203 186
0.176007962162780 0.256199267821410 0.992675781250000 213 207 190
0.172544942740001 0.256183525742386 0.973144531250000 211 203 187
0.169514800745068 0.256621389979320 0.956054687500000 216 207 191
0.166484658750136 0.256882759037326 0.938964843750000 213 204 188
0.163800818697482 0.257512055867496 0.923828125000000 213 204 188
0.160770676702549 0.257430520006440 0.906738281250000 213 204 188
0.158000261164326 0.257595934337969 0.891113281250000 212 203 187
0.155229845626102 0.257599981648763 0.875488281250000 212 203 187
0.152719156544586 0.257881235468530 0.861328125000000 213 204 188
0.150035316491932 0.257718825353219 0.846191406250000 213 204 188
0.147697778381556 0.258005026520440 0.833007812500000 213 204 188
0.145360240271180 0.258155074263917 0.819824218750000 214 205 189
0.143282428617512 0.258637798429744 0.808105468750000 209 200 184
0.140944890507135 0.258523103404827 0.794921875000000 212 203 187
0.138867078853468 0.258756212960455 0.783203125000000 211 202 186
0.136702691714230 0.258704456556069 0.770996093750000 211 202 186
0.134884606517271 0.259192080383380 0.760742187500000 210 201 185
0.132806794863603 0.259067156861752 0.749023437500000 205 196 180
0.130988709666644 0.259335422395250 0.738769531250000 211 202 186
0.129084048984115 0.259323864688133 0.728027343750000 212 203 187
0.127352539272725 0.259554262140175 0.718261718750000 207 198 182
0.125534454075766 0.259504836351601 0.708007812500000 209 200 184
0.123889519849945 0.259712493880381 0.698730468750000 206 197 181
0.122158010138555 0.259640328168544 0.688964843750000 202 193 177
0.120599651398304 0.259840373932255 0.680175781250000 206 197 181
0.118954717172484 0.259760596455350 0.670898437500000 204 195 179
0.117396358432233 0.259776582961035 0.662109375000000 208 199 183
0.115924575177552 0.259895897528406 0.653808593750000 201 193 175
0.114539367408440 0.260126104236562 0.645996093750000 206 197 180
0.113067584153758 0.260076487704101 0.637695312500000 205 196 180
0.111682376384647 0.260142806031822 0.629882812500000 205 196 180
0.110297168615535 0.260128440849176 0.622070312500000 207 198 182
0.108998536331992 0.260240095965507 0.614746093750000 209 200 184
0.107526753077311 0.259857659952780 0.606445312500000 206 197 181
0.106314696279338 0.260024737296517 0.599609375000000 210 201 185
0.105016063995796 0.259906948680240 0.592285156250000 207 198 182
0.103890582683392 0.260147097769276 0.585937500000000 207 198 182
0.102505374914280 0.259663759682619 0.578125000000000 211 202 186
0.101293318116307 0.259543402020671 0.571289062500000 211 202 186
0.100167836803904 0.259576799614390 0.564941406250000 209 200 184
0.099042355491501 0.259544641855936 0.558593750000000 206 197 181
0.097743723207958 0.258988136652036 0.551269531250000 210 201 185
0.096531666409985 0.258587908063501 0.544433593750000 206 197 181
0.095406185097582 0.258351520169429 0.538085937500000 209 200 184
0.094367279270748 0.258286537048916 0.532226562500000 212 203 187
0.093328373443914 0.258161041295627 0.526367187500000 207 198 182
0.092202892131511 0.257733030064432 0.520019531250000 207 197 179
0.091077410819107 0.257239463481063 0.513671875000000 208 198 181
0.090125080477843 0.257174432674578 0.508300781250000 208 198 180
0.089172750136578 0.257053931954715 0.502929687500000 209 199 181
0.088133844309744 0.256625873037548 0.497070312500000 212 203 186
0.087268089454049 0.256646520774857 0.492187500000000 202 193 178
0.086618773312278 0.257259568826499 0.488525390625000 200 191 175
0.085579867485444 0.256666360849048 0.482666015625000 206 197 183
0.084843975858104 0.256930248268352 0.478515625000000 201 192 178
0.926607190792184 -2.281822189748186 5.078125000000000 119 116 110
0.930883839365071 -2.266010510642789 5.101562500000000 118 115 109
0.933022163651515 -2.244812062757037 5.113281250000000 120 117 111
0.935160487937958 -2.223492589605735 5.125000000000000 110 107 101
0.936586037462254 -2.200377526860981 5.132812500000000 108 105 99
0.937298812224402 -2.175527387155550 5.136718750000000 119 116 110
0.938724361748698 -2.152271128267652 5.144531250000000 122 119 112
0.940149911272993 -2.128934185869388 5.152343750000000 123 120 113
0.940862686035141 -2.103922679143222 5.156250000000000 124 121 114
0.942288235559437 -2.080444540601813 5.164062500000000 126 123 116
0.943001010321585 -2.055332179487689 5.167968750000000 127 124 117
0.943001010321585 -2.028646108433623 5.167968750000000 130 127 120
0.943713785083732 -2.003473234686723 5.171875000000000 130 127 120
0.943713785083732 -1.976766992755065 5.171875000000000 131 128 121
0.943001010321585 -1.948587895271426 5.167968750000000 133 130 123
0.943001010321585 -1.921901824217360 5.167968750000000 134 132 123
0.943001010321585 -1.895215753163295 5.167968750000000 136 133 126
0.943001010321585 -1.868529682109229 5.167968750000000 138 136 127
0.943001010321585 -1.841843611055163 5.167968750000000 140 138 129
0.942288235559437 -1.813785538837076 5.164062500000000 141 138 131
0.942288235559437 -1.787119638660602 5.164062500000000 143 140 133
0.942288235559437 -1.760453738484128 5.164062500000000 145 143 134
0.942288235559437 -1.733787838307654 5.164062500000000 147 145 136
0.942288235559437 -1.707121938131180 5.164062500000000 149 147 138
0.942288235559437 -1.680456037954707 5.164062500000000 151 149 140
0.941575460797289 -1.652539161879762 5.160156250000000 153 151 142
0.942288235559437 -1.627124237601759 5.164062500000000 155 153 144
0.942288235559437 -1.600458337425285 5.164062500000000 158 156 147
0.942288235559437 -1.573792437248811 5.164062500000000 160 158 149
0.942288235559437 -1.547126537072337 5.164062500000000 163 161 152
0.943001010321585 -1.521610758406375 5.167968750000000 165 163 154
0.943001010321585 -1.494924687352309 5.167968750000000 168 165 156
0.943001010321585 -1.468238616298244 5.167968750000000 172 167 156
0.943001010321585 -1.441552545244178 5.167968750000000 174 169 158
0.943001010321585 -1.414866474190112 5.167968750000000 175 170 159
0.943001010321585 -1.388180403136047 5.167968750000000 176 171 160
0.943001010321585 -1.361494332081981 5.167968750000000 177 172 161
0.943001010321585 -1.334808261027915 5.167968750000000 178 173 162
0.943001010321585 -1.308122189973850 5.167968750000000 179 174 163
0.943001010321585 -1.281436118919784 5.167968750000000 179 174 163
0.943001010321585 -1.254750047865718 5.167968750000000 179 174 163
0.943001010321585 -1.228063976811653 5.167968750000000 179 174 163
0.943001010321585 -1.201377905757587 5.167968750000000 179 174 163
0.943713785083732 -1.175579734805338 5.171875000000000 179 174 163
0.943713785083732 -1.148873492873680 5.171875000000000 180 175 164
0.943713785083732 -1.122167250942023 5.171875000000000 179 174 163
0.943713785083732 -1.095461009010365 5.171875000000000 177 174 163
0.943713785083732 -1.068754767078708 5.171875000000000 177 174 163
0.943713785083732 -1.042048525147050 5.171875000000000 177 174 163
0.943713785083732 -1.015342283215392 5.171875000000000 177 174 164
0.943713785083732 -0.988636041283735 5.171875000000000 177 174 164
0.943713785083732 -0.961929799352077 5.171875000000000 177 174 163
0.943713785083732 -0.935223557420420 5.171875000000000 177 174 163
0.943713785083732 -0.908517315488762 5.171875000000000 177 174 163
0.944426559845880 -0.882477094005411 5.175781250000000 177 174 163
0.943713785083732 -0.855104831625447 5.171875000000000 176 173 162
0.943713785083732 -0.828398589693790 5.171875000000000 176 173 162
0.943713785083732 -0.801692347762132 5.171875000000000 176 173 162
0.943713785083732 -0.774986105830474 5.171875000000000 175 173 162
0.944426559845880 -0.748845029959163 5.175781250000000 175 172 161
0.944426559845880 -0.722118617149914 5.175781250000000 174 171 158
0.944426559845880 -0.695392204340665 5.175781250000000 174 171 158
0.944426559845880 -0.668665791531415 5.175781250000000 174 171 160
0.944426559845880 -0.641939378722166 5.175781250000000 173 170 159
0.944426559845880 -0.615212965912916 5.175781250000000 173 170 159
0.944426559845880 -0.588486553103667 5.175781250000000 172 169 158
0.944426559845880 -0.561760140294417 5.175781250000000 172 169 158
0.943713785083732 -0.534629928445556 5.171875000000000 172 169 158
0.943713785083732 -0.507923686513899 5.171875000000000 171 168 157
0.943001010321585 -0.480853987297813 5.167968750000000 171 168 157
0.942288235559437 -0.453824629836912 5.164062500000000 170 167 156
0.941575460797289 -0.426835614131194 5.160156250000000 170 167 156
0.940862686035141 -0.399886940180660 5.156250000000000 169 166 155
0.940862686035141 -0.373261381759370 5.156250000000000 168 165 154
0.940149911272993 -0.346373220441612 5.152343750000000 168 165 154
0.939437136510845 -0.319525400879038 5.148437500000000 167 164 153
0.938011586986550 -0.292495661930362 5.140625000000000 167 164 153
0.935160487937958 -0.265142425964670 5.125000000000000 166 163 152
0.933734938413663 -0.238314395791913 5.117187500000000 164 161 150
0.931596614127219 -0.211405300621016 5.105468750000000 162 159 148
0.926607190792184 -0.184050920192002 5.078125000000000 159 156 145
0.925181641267889 -0.157585965815899 5.070312500000000 154 151 140
0.918053893646410 -0.130391807944299 5.031250000000000 143 140 128
0.922330542219297 -0.104898107594797 5.054687500000000 133 129 112
0.922330542219297 -0.078796991990896 5.054687500000000 130 124 106
0.905223947927749 -0.051718518556015 4.960937500000000 124 118 98
0.894532326495532 -0.025793218533836 4.902343750000000 127 121 102
0.898096200306271 -0.000480674594887 4.921875000000000 126 120 100
0.875287407917540 0.024301370696709 4.796875000000000 130 124 106
0.791892760746244 0.044395857092569 4.339843750000000 119 114 98
0.370642876316874 0.031268195401008 2.031250000000000 82 79 68
0.369217326792578 0.041596447703602 2.023437500000000 45 44 37
0.369930101554726 0.052145435196385 2.027343750000000 35 35 29
0.369930101554726 0.062614120666574 2.027343750000000 36 37 31
0.368860939411504 0.072871584153708 2.021484375000000 37 38 31
0.368860939411504 0.083310013307510 2.021484375000000 37 38 31
0.369217326792578 0.093839020666587 2.023437500000000 37 38 31
0.369573714173652 0.104388198903257 2.025390625000000 37 38 31
0.370286488935800 0.115068297100387 2.029296875000000 38 39 32
0.370642876316874 0.125667902531037 2.031250000000000 37 38 31
0.370286488935800 0.136025838918357 2.029296875000000 38 39 32
0.370286488935800 0.146504609827342 2.029296875000000 38 39 32
0.369573714173652 0.156681199060223 2.025390625000000 38 39 32
0.369217326792578 0.166978622814768 2.023437500000000 38 39 32
0.368860939411504 0.177255875691720 2.021484375000000 38 39 32
0.368860939411504 0.187694304845522 2.021484375000000 38 39 32
0.368504552030430 0.197941301406087 2.019531250000000 38 39 32
0.368504552030430 0.208369645121092 2.019531250000000 38 39 32
0.368148164649356 0.218586385365269 2.017578125000000 38 39 32
0.367435389887209 0.228561265822231 2.013671875000000 38 39 32
0.366722615125061 0.238495804524009 2.009765625000000 38 39 32
0.366366227743987 0.248631861257818 2.007812500000000 37 38 31
0.364940678219691 0.257991911436001 2.000000000000000 36 37 30
0.364227903457543 0.267795339433432 1.996093750000000 28 28 21
0.356921962145528 0.272524277759012 1.956054687500000 124 117 107
0.323777935705654 0.256380101269991 1.774414062500000 211 204 187
0.308096890938401 0.252682095243503 1.688476562500000 209 203 184
0.294732364148129 0.250061991332917 1.615234375000000 208 202 183
0.284753517478060 0.249653829171116 1.560546875000000 211 205 186
0.274061896045842 0.248035795841575 1.501953125000000 215 209 190
0.266399567352753 0.248639980443501 1.459960937500000 215 209 190
0.258915432350201 0.248981848264789 1.418945312500000 215 209 190
0.251787684728722 0.249252927270619 1.379882812500000 216 210 191
0.245194518178855 0.249664916303761 1.343750000000000 215 209 190
0.238957739010061 0.250076714593017 1.309570312500000 214 208 190
0.233433734603416 0.250901634385133 1.279296875000000 214 208 190
0.227909730196770 0.251413905574574 1.249023437500000 214 208 189
0.222920306861735 0.252218368373268 1.221679687500000 211 205 186
0.217930883526700 0.252740438885675 1.194335937500000 213 207 189
0.213297847572739 0.253403514797338 1.168945312500000 212 206 187
0.208664811618778 0.253804369300307 1.143554687500000 215 209 192
0.204388163045891 0.254386570957716 1.120117187500000 215 209 192
0.200289708163541 0.254953549084988 1.097656250000000 211 203 187
0.196191253281191 0.255288562119953 1.075195312500000 213 204 188
0.192092798398841 0.255391610062611 1.052734375000000 214 205 189
0.188172537207028 0.255504648072122 1.031250000000000 212 203 187
0.184430469705752 0.255642804306680 1.010742187500000 211 204 187
0.181133886430818 0.256199267821410 0.992675781250000 211 205 188
0.177570012620079 0.256183525742386 0.973144531250000 209 202 186
0.174362526190414 0.256490326960945 0.955566406250000 211 201 185
0.171333233451286 0.256882759037326 0.938964843750000 217 208 192
0.168482134402694 0.257375950129723 0.923339843750000 209 200 184
0.165452841663566 0.257430520006440 0.906738281250000 213 204 188
0.162512645769706 0.257454785880797 0.890625000000000 215 206 190
0.159661546721115 0.257456311831892 0.875000000000000 214 205 189
0.157077738208329 0.257735044291960 0.860839843750000 212 203 187
0.154315736005006 0.257570112816950 0.845703125000000 211 202 186
0.151910121182757 0.257853792624473 0.832519531250000 215 206 190
0.149504506360508 0.258001319008251 0.819335937500000 211 202 186
0.147366182074065 0.258481521814379 0.807617187500000 212 203 187
0.144960567251816 0.258364305429763 0.794433593750000 211 202 186
0.142822242965372 0.258594893625692 0.782714843750000 207 198 182
0.140683918678929 0.258704456556069 0.770996093750000 210 201 185
0.138723788083022 0.259025718329218 0.760253906250000 213 204 188
0.136674560641847 0.259067156861752 0.749023437500000 211 202 186
0.134803526891209 0.259335422395250 0.738769531250000 203 194 178
0.132843396295303 0.259323864688133 0.728027343750000 193 184 168
0.131061459389933 0.259554262140175 0.718261718750000 205 196 180
0.129190425639295 0.259504836351601 0.708007812500000 210 201 185
0.127408488733925 0.259531003668025 0.698242187500000 208 199 183
0.125715648673824 0.259640328168544 0.688964843750000 197 188 172
0.124111905458992 0.259840373932255 0.680175781250000 209 200 184
0.122419065398891 0.259760596455350 0.670898437500000 211 202 186
0.120815322184058 0.259776582961035 0.662109375000000 207 198 182
0.119300675814494 0.259895897528406 0.653808593750000 199 190 172
0.117875126290198 0.260126104236562 0.645996093750000 205 196 179
0.116360479920634 0.260076487704101 0.637695312500000 207 198 182
0.114934930396338 0.260142806031822 0.629882812500000 205 196 180
0.113509380872043 0.260128440849176 0.622070312500000 206 197 181
0.112172928193015 0.260240095965507 0.614746093750000 206 197 181
0.110747378668720 0.260066885121824 0.606933593750000 206 197 181
0.109410925989693 0.260024737296517 0.599609375000000 209 200 184
0.108163570155934 0.260121216568683 0.592773437500000 201 192 176
0.106916214322175 0.260147097769276 0.585937500000000 206 197 181
0.105579761643148 0.259883070290459 0.578613281250000 209 200 184
0.104243308964121 0.259543402020671 0.571289062500000 204 195 179
0.103085049975631 0.259576799614390 0.564941406250000 208 199 183
0.101837694141872 0.259317767168999 0.558105468750000 209 200 184
0.100590338308113 0.258988136652036 0.551269531250000 208 199 183
0.099432079319623 0.258819825469836 0.544921875000000 210 201 185
0.098184723485864 0.258351520169429 0.538085937500000 208 199 183
0.097204658187911 0.258523497174648 0.532714843750000 213 204 188
0.096046399199421 0.258161041295627 0.526367187500000 210 201 184
0.094977237056199 0.257975032909562 0.520507812500000 204 194 176
0.093908074912977 0.257728511890722 0.514648437500000 204 194 176
0.092838912769755 0.257421478239107 0.508789062500000 205 195 177
0.091769750626534 0.257053931954715 0.502929687500000 204 194 176
0.090789685328580 0.256877961321475 0.497558593750000 203 193 176
0.089943265298530 0.257028435240296 0.492919921875000 209 200 184
0.089185942113748 0.257388134328161 0.488769531250000 202 193 178
0.088250425238429 0.257185665575096 0.483642578125000 203 194 180
0.087404005208378 0.257192421991075 0.479003906250000 204 195 181
0.952096386021897 -2.280066941909917 5.074218750000000 118 116 109
0.957959951139815 -2.267745587603465 5.105468750000000 118 116 109
0.959425842419294 -2.244812062757037 5.113281250000000 118 116 109
0.961624679338513 -2.223492589605735 5.125000000000000 112 109 104
0.962357624978253 -2.198702962533080 5.128906250000000 106 102 97
0.963823516257733 -2.175527387155550 5.136718750000000 118 115 109
0.965289407537212 -2.152271128267652 5.144531250000000 121 118 111
0.966022353176952 -2.127320134174263 5.148437500000000 123 119 112
0.967488244456431 -2.103922679143222 5.156250000000000 124 121 114
0.968954135735911 -2.080444540601813 5.164062500000000 125 122 115
0.969687081375650 -2.055332179487689 5.167968750000000 126 123 116
0.969687081375650 -2.028646108433623 5.167968750000000 129 126 119
0.969687081375650 -2.001960037379558 5.167968750000000 130 127 120
0.969687081375650 -1.975273966325492 5.167968750000000 131 128 121
0.968954135735911 -1.947115039719445 5.164062500000000 132 129 122
0.968954135735911 -1.920449139542971 5.164062500000000 133 131 122
0.968954135735911 -1.893783239366497 5.164062500000000 136 134 125
0.968954135735911 -1.867117339190023 5.164062500000000 138 136 128
0.968954135735911 -1.840451439013549 5.164062500000000 140 138 130
0.968221190096171 -1.812413537673054 5.160156250000000 141 139 132
0.968221190096171 -1.785767808374172 5.160156250000000 144 141 134
0.968221190096171 -1.759122079075290 5.160156250000000 145 143 134
0.968221190096171 -1.732476349776408 5.160156250000000 147 145 136
0.968221190096171 -1.705830620477526 5.160156250000000 149 147 138
0.968221190096171 -1.679184891178644 5.160156250000000 151 149 140
0.967488244456431 -1.651288185981292 5.156250000000000 153 151 142
0.968221190096171 -1.625893432580880 5.160156250000000 156 154 145
0.968221190096171 -1.599247703281999 5.160156250000000 157 155 146
0.968221190096171 -1.572601973983117 5.160156250000000 161 158 149
0.968221190096171 -1.545956244684235 5.160156250000000 163 161 152
0.968954135735911 -1.520460636895864 5.164062500000000 165 163 154
0.968954135735911 -1.493794736719390 5.164062500000000 168 165 156
0.969687081375650 -1.468238616298244 5.167968750000000 169 166 155
0.968954135735911 -1.440462936366442 5.164062500000000 171 168 157
0.969687081375650 -1.414866474190112 5.167968750000000 174 169 158
0.969687081375650 -1.388180403136047 5.167968750000000 175 170 159
0.969687081375650 -1.361494332081981 5.167968750000000 177 172 161
0.969687081375650 -1.334808261027915 5.167968750000000 177 172 161
0.969687081375650 -1.308122189973850 5.167968750000000 178 173 162
0.969687081375650 -1.281436118919784 5.167968750000000 178 173 162
0.969687081375650 -1.254750047865718 5.167968750000000 178 173 162
0.969687081375650 -1.228063976811653 5.167968750000000 179 174 163
0.968954135735911 -1.200469834778178 5.164062500000000 179 174 163
0.968954135735911 -1.173803934601705 5.164062500000000 179 174 163
0.969687081375650 -1.148005763649456 5.167968750000000 179 174 163
0.969687081375650 -1.121319692595390 5.167968750000000 178 174 163
0.969687081375650 -1.094633621541324 5.167968750000000 177 174 163
0.969687081375650 -1.067947550487258 5.167968750000000 177 174 163
0.969687081375650 -1.041261479433193 5.167968750000000 177 174 163
0.969687081375650 -1.014575408379127 5.167968750000000 177 174 164
0.969687081375650 -0.987889337325061 5.167968750000000 177 174 164
0.970420027015390 -0.961929799352077 5.171875000000000 177 174 164
0.969687081375650 -0.934517195216930 5.167968750000000 177 174 163
0.970420027015390 -0.908517315488762 5.171875000000000 177 174 163
0.970420027015390 -0.881811073557105 5.171875000000000 177 174 163
0.969687081375650 -0.854458982054733 5.167968750000000 176 174 162
0.969687081375650 -0.827772911000667 5.167968750000000 175 174 161
0.970420027015390 -0.801692347762132 5.171875000000000 175 174 161
0.969687081375650 -0.774400768892536 5.167968750000000 175 174 161
0.970420027015390 -0.748279863898817 5.171875000000000 175 173 160
0.970420027015390 -0.721573621967159 5.171875000000000 175 172 160
0.971152972655130 -0.695392204340665 5.175781250000000 175 172 160
0.971152972655130 -0.668665791531415 5.175781250000000 174 171 160
0.971152972655130 -0.641939378722166 5.175781250000000 174 171 160
0.971152972655130 -0.615212965912916 5.175781250000000 173 170 159
0.970420027015390 -0.588042412308871 5.171875000000000 172 169 158
0.970420027015390 -0.561336170377214 5.171875000000000 172 169 158
0.970420027015390 -0.534629928445556 5.171875000000000 171 168 157
0.969687081375650 -0.507540058351879 5.167968750000000 171 168 157
0.969687081375650 -0.480853987297813 5.167968750000000 170 167 156
0.968954135735911 -0.453824629836912 5.164062500000000 170 167 156
0.968221190096171 -0.426835614131194 5.160156250000000 170 167 156
0.967488244456431 -0.399886940180660 5.156250000000000 169 166 155
0.966755298816691 -0.372978607985310 5.152343750000000 168 165 154
0.966022353176952 -0.346110617545144 5.148437500000000 167 164 153
0.965289407537212 -0.319282968860161 5.144531250000000 166 163 152
0.963823516257733 -0.292273400789078 5.136718750000000 166 162 151
0.961624679338513 -0.265142425964670 5.125000000000000 165 162 151
0.960158788059034 -0.238314395791913 5.117187500000000 163 160 149
0.958692896779554 -0.211567049129525 5.109375000000000 161 158 147
0.956494059860335 -0.184758808346586 5.097656250000000 158 155 144
0.950630494742417 -0.157464559062574 5.066406250000000 151 150 137
0.952829331661637 -0.131606638453097 5.078125000000000 140 139 125
0.947698712183459 -0.104817042596656 5.050781250000000 135 130 112
0.939636310146322 -0.078066262544304 5.007812500000000 134 128 109
0.939636310146322 -0.052207197471505 5.007812500000000 129 122 103
0.937437473227103 -0.026286475302610 4.996093750000000 129 123 104
0.919846777873349 -0.000478767156018 4.902343750000000 126 120 101
0.929375071189966 0.025092946289435 4.953125000000000 123 117 98
0.924977397351527 0.050429857471487 4.929687500000000 126 120 101
0.879534767687665 0.072157374002327 4.687500000000000 122 117 99
0.389560607521661 0.042680525008618 2.076171875000000 111 105 93
0.382597623944134 0.052446853896942 2.039062500000000 71 68 58
0.380765259844785 0.062674442555462 2.029296875000000 39 39 31
0.382964096764004 0.073575657430556 2.041015625000000 35 36 28
0.381498205484525 0.083792969906394 2.033203125000000 37 38 30
0.380398787024915 0.094020177077141 2.027343750000000 38 39 32
0.380765259844785 0.104589526191402 2.029296875000000 38 39 32
0.380765259844785 0.115068297100387 2.029296875000000 38 39 32
0.381498205484525 0.125788737052701 2.033203125000000 38 39 32
0.381131732664655 0.136156758878818 2.031250000000000 38 39 32
0.380765259844785 0.146504609827342 2.029296875000000 38 39 32
0.380032314205045 0.156681199060223 2.025390625000000 38 39 32
0.379665841385175 0.166978622814768 2.023437500000000 38 39 32
0.379299368565305 0.177255875691720 2.021484375000000 39 40 33
0.378932895745435 0.187512957691082 2.019531250000000 39 40 33
0.378566422925566 0.197749868812851 2.017578125000000 39 40 33
0.378199950105696 0.207966609057028 2.015625000000000 39 40 33
0.377833477285826 0.218163178423614 2.013671875000000 38 39 32
0.377100531646086 0.228117888002983 2.009765625000000 38 39 32
0.376734058826216 0.238264030175589 2.007812500000000 38 39 32
0.376001113186477 0.248148141683387 2.003906250000000 38 39 32
0.374535221906997 0.257488020983978 1.996093750000000 36 37 31
0.373435803447388 0.267009247439009 1.990234375000000 28 28 22
0.365739874230121 0.271571871396399 1.949218750000000 128 120 111
0.332574084031898 0.256097899727591 1.772460937500000 214 206 189
0.316449279957624 0.252389808262308 1.686523437500000 211 205 187
0.302340076392635 0.249457246492935 1.611328125000000 209 203 184
0.292262073846214 0.249185142382935 1.557617187500000 211 205 187
0.281451125660053 0.247713252543991 1.500000000000000 214 208 189
0.273388723622916 0.248141037338932 1.457031250000000 217 211 192
0.265876030815584 0.248639134089614 1.416992187500000 216 210 191
0.258546574418186 0.248900127656648 1.377929687500000 214 208 189
0.251583590840659 0.249120588724611 1.340820312500000 215 209 190
0.245353552902871 0.249703744101454 1.307617187500000 218 212 193
0.239856460604824 0.250710106419953 1.278320312500000 215 209 190
0.234359368306776 0.251413905574574 1.249023437500000 214 208 189
0.229228748828598 0.252218368373268 1.221679687500000 214 208 189
0.224098129350420 0.252740438885675 1.194335937500000 209 203 184
0.219333982692111 0.253403514797338 1.168945312500000 213 207 188
0.214386599623868 0.253587627738138 1.142578125000000 215 209 191
0.210172162195365 0.254386570957716 1.120117187500000 209 203 186
0.205774488356927 0.254726722084023 1.096679687500000 209 202 185
0.201743287338358 0.255288562119953 1.075195312500000 215 208 191
0.197345613499920 0.255154697622850 1.051757812500000 214 205 189
0.193497648891286 0.255504648072122 1.031250000000000 209 201 185
0.189649684282653 0.255642804306680 1.010742187500000 214 207 190
0.186076574288922 0.255947227223455 0.991699218750000 212 206 188
0.182503464295190 0.256054984083709 0.972656250000000 210 203 186
0.179296827121329 0.256490326960945 0.955566406250000 211 202 186
0.176181808152435 0.256882759037326 0.938964843750000 211 202 186
0.173250025593476 0.257375950129723 0.923339843750000 210 203 186
0.170043388419615 0.257291892908967 0.906250000000000 209 202 184
0.167111605860656 0.257454785880797 0.890625000000000 213 206 189
0.164088205096730 0.257312642015022 0.874511718750000 208 201 184
0.161431277152673 0.257588853115391 0.860351562500000 213 204 188
0.158682731003649 0.257570112816950 0.845703125000000 212 203 187
0.156209039469528 0.257853792624473 0.832519531250000 211 202 186
0.153735347935406 0.258001319008251 0.819335937500000 206 197 181
0.151444892811220 0.258325245199014 0.807128906250000 212 203 187
0.149062819482066 0.258364305429763 0.794433593750000 204 195 179
0.146863982562847 0.258594893625692 0.782714843750000 211 202 186
0.144573527438660 0.258540615861607 0.770507812500000 210 201 185
0.142649545134343 0.259025718329218 0.760253906250000 201 192 176
0.140450708215124 0.258898273447891 0.748535156250000 204 195 179
0.138526725910807 0.259164017621691 0.738281250000000 209 200 184
0.136602743606490 0.259323864688133 0.728027343750000 196 187 171
0.134770379507141 0.259554262140175 0.718261718750000 205 196 180
0.132754778997857 0.259325867498945 0.707519531250000 202 193 177
0.131014033103475 0.259531003668025 0.698242187500000 201 192 176
0.129273287209093 0.259640328168544 0.688964843750000 211 202 186
0.127624159519679 0.259840373932255 0.680175781250000 210 201 185
0.125791795420330 0.259571542163898 0.670410156250000 212 203 187
0.124142667730915 0.259585007309884 0.661621093750000 208 199 183
0.122585158246468 0.259701800517556 0.653320312500000 211 202 185
0.121210885171956 0.260126104236562 0.645996093750000 208 199 183
0.119653375687509 0.260076487704101 0.637695312500000 207 198 182
0.118187484408030 0.260142806031822 0.629882812500000 209 200 184
0.116721593128551 0.260128440849176 0.622070312500000 210 201 185
0.115347320054039 0.260240095965507 0.614746093750000 208 199 183
0.113881428774559 0.260066885121824 0.606933593750000 211 202 186
0.112507155700047 0.260024737296517 0.599609375000000 205 196 180
0.111224500830503 0.260121216568683 0.592773437500000 204 195 179
0.109941845960958 0.260147097769276 0.585937500000000 209 200 184
0.108475954681479 0.259663759682619 0.578125000000000 209 200 184
0.107193299811934 0.259543402020671 0.571289062500000 206 197 181
0.106002263147357 0.259576799614390 0.564941406250000 210 201 185
0.104811226482780 0.259544641855936 0.558593750000000 209 200 184
0.103528571613236 0.259217532698672 0.551757812500000 209 200 184
0.102245916743691 0.258819825469836 0.544921875000000 208 199 183
0.101054880079114 0.258585958935463 0.538574218750000 210 201 185
0.099955461619504 0.258523497174648 0.532714843750000 212 203 186
0.098856043159895 0.258400522781059 0.526855468750000 208 199 181
0.097756624700285 0.258217035754693 0.520996093750000 209 200 182
0.096565588035708 0.257728511890722 0.514648437500000 206 196 178
0.095557787781066 0.257668523803636 0.509277343750000 193 183 167
0.094549987526424 0.257553065803171 0.503906250000000 200 191 174
0.093496378169298 0.257256093747366 0.498291015625000 187 178 164
0.092534387017140 0.257155740062109 0.493164062500000 200 191 176
0.091801441377400 0.257645265331486 0.489257812500000 212 203 188
0.090793641122758 0.257315491756608 0.483886718750000 205 196 182
0.089877459073083 0.257192421991075 0.479003906250000 201 192 178
0.978298356013757 -2.280066941909917 5.074218750000000 118 116 109
0.983570171635079 -2.266010510642789 5.101562500000000 118 116 109
0.985829521187074 -2.244812062757037 5.113281250000000 118 116 109
0.988088870739068 -2.223492589605735 5.125000000000000 113 110 105
0.988841987256400 -2.198702962533080 5.128906250000000 104 101 96
0.990348220291063 -2.175527387155550 5.136718750000000 118 116 109
0.991101336808395 -2.150636905694936 5.140625000000000 120 117 110
0.992607569843058 -2.127320134174263 5.148437500000000 122 119 112
