ply
format ascii 1.0
element vertex 710
property double x
property double y
property double z
property uchar red
property uchar green
property uchar blue
end_header
-0.372598258662118 0.282642344602464 0.883789062500000 213 205 187
-0.365599175350233 0.281807889521691 0.867187500000000 215 209 190
-0.359217658212926 0.281285685852864 0.852050781250000 214 205 187
-0.352836141075619 0.280607265621503 0.836914062500000 214 204 186
-0.346660479329838 0.279938863307007 0.822265625000000 212 203 185
-0.340690672975583 0.279288037775306 0.808105468750000 213 203 185
-0.335132577404380 0.278833621615678 0.794921875000000 211 201 183
-0.329368626441651 0.278069352524000 0.781250000000000 209 199 181
-0.323810530870448 0.277340297568951 0.768066406250000 216 206 188
-0.318252435299246 0.276475183027179 0.754882812500000 215 205 187
-0.313311905902621 0.276018065532453 0.743164062500000 210 200 182
-0.308165521114470 0.275256134349631 0.730957031250000 212 202 184
-0.303224991717845 0.274554613523200 0.719238281250000 214 204 186
-0.298490317712747 0.273921061919090 0.708007812500000 204 196 177
-0.293961499099174 0.273363038403230 0.697265625000000 207 198 180
-0.289638535877127 0.272888101841549 0.687011718750000 208 200 182
-0.285315572655080 0.272307341156862 0.676757812500000 209 200 182
-0.280992609433034 0.271620756349168 0.666503906250000 207 198 180
-0.277081356994039 0.271231365792602 0.657226562500000 204 196 177
-0.273170104555045 0.270746229600935 0.647949218750000 204 195 177
-0.269464707507576 0.270371896205187 0.639160156250000 206 196 178
-0.265965165851633 0.270115924471287 0.630859375000000 206 196 178
-0.262465624195691 0.269774285590190 0.622558593750000 201 191 173
-0.259171937931274 0.269561086858848 0.614746093750000 205 195 177
-0.255672396275332 0.269050633305336 0.606445312500000 206 195 177
-0.252584565402441 0.268892805686433 0.599121093750000 201 191 173
-0.249702589921077 0.268881055571117 0.592285156250000 195 188 170
-0.246614759048186 0.268574570255609 0.584960937500000 205 199 180
-0.243732783566822 0.268419201687641 0.578125000000000 201 195 178
-0.241056663476984 0.268422508733143 0.571777343750000 192 183 167
-0.238586398778671 0.268592050258043 0.565917968750000 197 188 172
-0.235910278688833 0.268466856582751 0.559570312500000 199 190 174
-0.233440013990520 0.268512936630810 0.553710937500000 200 191 175
-0.231175604683734 0.268737849268149 0.548339843750000 194 185 169
-0.228911195376948 0.268907330222009 0.542968750000000 195 186 170
-0.226646786070161 0.269021379492389 0.537597656250000 198 189 173
-0.224382376763375 0.269079997079290 0.532226562500000 201 192 176
-0.222323822848115 0.269332564987328 0.527343750000000 200 191 175
-0.220471124324380 0.269786642082435 0.522949218750000 196 187 171
-0.218618425800646 0.270195365981966 0.518554687500000 197 188 172
-0.217589148843016 0.271586500168112 0.516113281250000 192 183 167
-0.215942305710808 0.272174056656924 0.512207031250000 188 179 163
-0.214501317970125 0.272983279308614 0.508789062500000 196 187 170
-1.150067112573022 -1.240178014949373 2.761718750000000 157 149 123
-1.148440426416624 -1.224193048563107 2.757812500000000 158 150 125
-1.154947171042214 -1.216817533689658 2.773437500000000 159 151 125
-1.154133827964015 -1.201659245595795 2.771484375000000 159 151 125
-1.155760514120413 -1.189031384818670 2.775390625000000 160 152 124
-1.156573857198611 -1.175536531797519 2.777343750000000 161 152 124
-1.157387200276810 -1.162021521800558 2.779296875000000 162 153 125
-1.159013886433208 -1.149292876144378 2.783203125000000 163 154 126
-1.160640572589605 -1.136523916536577 2.787109375000000 162 153 126
-1.161453915667804 -1.122928278636373 2.789062500000000 164 155 129
-1.163080601824201 -1.110088769613234 2.792968750000000 166 157 130
-1.163893944902400 -1.096442739273503 2.794921875000000 161 153 124
-1.164707287980599 -1.082776551957961 2.796875000000000 164 157 128
-1.163893944902400 -1.067598106888288 2.794921875000000 165 156 129
-1.164707287980599 -1.053911762596935 2.796875000000000 164 155 128
-1.164707287980599 -1.039479367916422 2.796875000000000 163 154 126
-1.164707287980599 -1.025046973235909 2.796875000000000 163 154 126
-1.163893944902400 -1.009908842117857 2.794921875000000 164 156 127
-1.163893944902400 -0.995486525925249 2.794921875000000 163 154 126
-1.163080601824201 -0.980378630270914 2.792968750000000 162 153 125
-1.163080601824201 -0.965966392566211 2.792968750000000 162 153 125
-1.162267258746003 -0.950888732375592 2.791015625000000 161 155 126
-1.161453915667804 -0.935831229160783 2.789062500000000 160 155 126
-1.160640572589605 -0.920793882921785 2.787109375000000 161 155 126
-1.159827229511406 -0.905776693658598 2.785156250000000 162 156 127
-1.159013886433208 -0.890779661371222 2.783203125000000 162 156 127
-1.158200543355009 -0.875802786059656 2.781250000000000 162 155 128
-1.158200543355009 -0.861451019282386 2.781250000000000 164 156 129
-1.156573857198611 -0.845909506363957 2.777343750000000 163 156 128
-1.156573857198611 -0.831577896562498 2.777343750000000 162 154 127
-1.155760514120413 -0.816671570666270 2.775390625000000 162 154 127
-1.154947171042214 -0.801785401745853 2.773437500000000 161 154 126
-1.154947171042214 -0.787473948920205 2.773437500000000 160 154 124
-1.154133827964015 -0.772618015463504 2.771484375000000 160 153 123
-1.152507141807618 -0.757247836839467 2.767578125000000 158 151 121
-1.151693798729419 -0.742442295822293 2.765625000000000 157 150 121
-1.151693798729419 -0.728171156948266 2.765625000000000 159 151 122
-1.150880455651220 -0.713395851394808 2.763671875000000 161 154 125
-1.150067112573022 -0.698640702817161 2.761718750000000 162 155 125
-1.149253769494823 -0.683905711215325 2.759765625000000 162 155 126
-1.149253769494823 -0.669664807805014 2.759765625000000 163 155 126
-1.148440426416624 -0.654960051666894 2.757812500000000 162 155 125
-1.147627083338425 -0.640275452504584 2.755859375000000 161 153 124
-1.147627083338425 -0.626054706070084 2.755859375000000 161 154 125
-1.146813740260227 -0.611400342371491 2.753906250000000 160 153 125
-1.146000397182028 -0.596766135648709 2.751953125000000 160 152 126
-1.145187054103829 -0.582152085901737 2.750000000000000 159 152 125
-1.144373711025630 -0.567558193130576 2.748046875000000 158 151 121
-1.144373711025630 -0.553377760647698 2.748046875000000 158 151 122
-1.143560367947432 -0.538814103340253 2.746093750000000 159 152 123
-1.142747024869233 -0.524270603008619 2.744140625000000 160 153 123
-1.141933681791034 -0.509747259652796 2.742187500000000 158 150 119
-1.141120338712835 -0.495244073272783 2.740234375000000 156 148 118
-1.140306995634636 -0.480761043868582 2.738281250000000 158 151 120
-1.138680309478239 -0.465965339055152 2.734375000000000 159 151 120
-1.137866966400040 -0.451532702090477 2.732421875000000 159 151 121
-1.137053623321842 -0.437120222101613 2.730468750000000 159 152 122
-1.136240280243643 -0.422727899088560 2.728515625000000 157 150 120
-1.135426937165444 -0.408355733051317 2.726562500000000 158 150 119
-1.133800251009047 -0.393721284044373 2.722656250000000 160 152 121
-1.132986907930848 -0.379399510446658 2.720703125000000 161 152 121
-1.132173564852649 -0.365097893824753 2.718750000000000 163 154 124
-1.131360221774450 -0.350816434178659 2.716796875000000 164 155 125
-1.130546878696252 -0.336555131508376 2.714843750000000 162 153 123
-1.129733535618053 -0.322313985813904 2.712890625000000 163 154 123
-1.128106849461656 -0.307871028077162 2.708984375000000 163 155 124
-1.127293506383457 -0.293680274822216 2.707031250000000 161 152 122
-1.125666820227059 -0.279307866500812 2.703125000000000 160 151 121
-1.124853477148860 -0.265167505685394 2.701171875000000 161 153 121
-1.124853477148860 -0.251228956912245 2.701171875000000 161 152 121
-1.123226790992463 -0.236947254981989 2.697265625000000 163 153 123
-1.121600104836065 -0.222705867003355 2.693359375000000 164 155 124
-1.120786761757867 -0.208656212579085 2.691406250000000 164 155 124
-1.119160075601469 -0.194485374015789 2.687500000000000 163 154 123
-1.117533389445072 -0.180354849404114 2.683593750000000 163 155 123
-1.115906703288674 -0.166264638744061 2.679687500000000 161 154 121
-1.114280017132277 -0.152214742035629 2.675781250000000 160 153 122
-1.112653330975879 -0.138205159278819 2.671875000000000 159 152 121
-1.110213301741283 -0.124144941798320 2.666015625000000 158 150 120
-1.108586615584886 -0.110226065432659 2.662109375000000 162 153 123
-1.106146586350289 -0.096276711319119 2.656250000000000 163 155 124
-1.103706557115693 -0.082387828133012 2.650390625000000 164 155 125
-1.102893214037494 -0.068660685321714 2.648437500000000 165 156 126
-1.102079870959296 -0.054953699486227 2.646484375000000 163 156 125
-1.102079870959296 -0.041297348374429 2.646484375000000 163 156 125
-1.102079870959296 -0.027640997262631 2.646484375000000 161 154 122
-1.100453184802898 -0.013964004606698 2.642578125000000 159 152 121
-1.098826498646501 -0.000327325902387 2.638671875000000 158 151 121
-1.098013155568302 0.013278875054046 2.636718750000000 157 149 120
-1.097199812490103 0.026864919034668 2.634765625000000 155 148 118
-1.094759783255507 0.040370819680370 2.628906250000000 155 148 117
-1.089879724786315 0.053696034396261 2.617187500000000 155 148 116
-1.081746294004327 0.066699706635825 2.597656250000000 153 147 116
-1.067919461674948 0.079080208614388 2.564453125000000 148 141 112
-1.057346001658365 0.091399270528871 2.539062500000000 115 100 63
-1.054092629345570 0.104179762329548 2.531250000000000 110 93 54
-1.051652600110974 0.116970090333968 2.525390625000000 110 93 55
-1.050839257032775 0.129901032600740 2.523437500000000 110 93 55
-1.050025913954576 0.142811817891701 2.521484375000000 110 93 55
-1.049212570876377 0.155702446206852 2.519531250000000 110 93 55
-1.048399227798179 0.168572917546192 2.517578125000000 109 92 52
-1.047585884719980 0.181423231909721 2.515625000000000 115 98 59
-1.047585884719980 0.194404324331858 2.515625000000000 136 121 89
-1.048399227798179 0.207546430276320 2.517578125000000 110 92 55
-1.048399227798179 0.220537601186363 2.517578125000000 110 93 54
-1.048399227798179 0.233528772096406 2.517578125000000 110 93 55
-1.047585884719980 0.246328694020408 2.515625000000000 111 94 56
-1.048399227798179 0.259511113916491 2.517578125000000 110 92 55
-1.047585884719980 0.272290878864683 2.515625000000000 107 89 53
-1.048399227798179 0.285493455736577 2.517578125000000 107 90 53
-1.049212570876377 0.298716189584282 2.519531250000000 102 85 50
-1.049212570876377 0.311717438982230 2.519531250000000 103 86 52
-1.049212570876377 0.324718688380179 2.519531250000000 108 91 55
-1.049212570876377 0.337719937778127 2.519531250000000 109 93 56
-1.050025913954576 0.350993064065359 2.521484375000000 140 122 82
-1.051652600110974 0.364568302705591 2.525390625000000 143 125 84
-1.054905972423769 0.378767923027633 2.533203125000000 143 125 84
-1.057346001658365 0.392746058899919 2.539062500000000 144 126 85
-1.054092629345570 0.404599329813300 2.531250000000000 146 127 85
-1.044332512407185 0.413793818192952 2.507812500000000 128 111 79
-1.023998935452216 0.418425901245565 2.458984375000000 211 201 183
-0.912570933738989 0.384202313785304 2.191406250000000 233 225 205
-0.857263604421474 0.371540051323320 2.058593750000000 220 212 194
-0.729162069605172 0.325055910907517 1.750976562500000 143 138 124
-0.705168448798309 0.323097753148735 1.693359375000000 187 180 164
-0.678734798756850 0.319396743834806 1.629882812500000 228 221 200
-0.656367864106385 0.317004726527770 1.576171875000000 226 220 200
-0.638067644846913 0.316072878546206 1.532226562500000 226 220 200
-0.618140739431044 0.313861547168981 1.484375000000000 226 220 200
-0.597807162476075 0.310944842780461 1.435546875000000 226 220 200
-0.579913614755703 0.308823612083981 1.392578125000000 224 218 198
-0.564053424730828 0.307366955878852 1.354492187500000 224 218 198
-0.548193234705952 0.305517238645413 1.316406250000000 221 215 195
-0.532333044681077 0.303274460383664 1.278320312500000 222 216 196
-0.517286197734400 0.301112067740996 1.242187500000000 219 213 193
-0.503459365405021 0.299302058748775 1.208984375000000 220 214 194
-0.490039204614742 0.297396182979371 1.176757812500000 218 212 192
-0.477432386902662 0.295661399220198 1.146484375000000 220 214 194
-0.465638912268780 0.294127942934970 1.118164062500000 218 211 191
-0.455065452252196 0.293087969130864 1.092773437500000 217 208 188
-0.444491992235613 0.291785954641218 1.067382812500000 217 209 189
-0.434325203758128 0.290493897497397 1.042968750000000 218 213 193
-0.424565086819743 0.289226915431258 1.019531250000000 218 212 193
-0.415211641420458 0.288000126174659 0.997070312500000 219 212 193
-0.406264867560272 0.286828647459460 0.975585937500000 219 211 191
-0.397928101008735 0.285873674521105 0.955566406250000 220 209 191
-0.389591334457198 0.284712092580690 0.935546875000000 213 203 185
-0.382271246753409 0.284099485375916 0.917968750000000 215 205 187
-0.375154494819170 0.283459101758362 0.900878906250000 214 206 188
-0.368037742884931 0.282642344602464 0.883789062500000 212 205 186
-0.361124326720242 0.281807889521691 0.867187500000000 216 209 190
-0.354820917864201 0.281285685852864 0.852050781250000 213 205 187
-0.348517509008161 0.280607265621503 0.836914062500000 211 201 184
-0.342417435921670 0.279938863307007 0.822265625000000 205 196 178
-0.336520698604730 0.279288037775306 0.808105468750000 210 201 183
-0.331030632826888 0.278833621615678 0.794921875000000 214 205 187
-0.325337231279497 0.278069352524000 0.781250000000000 213 202 184
-0.319847165501655 0.277340297568951 0.768066406250000 217 206 188
-0.314357099723814 0.276475183027179 0.754882812500000 211 201 183
-0.309477041254621 0.276018065532453 0.743164062500000 213 203 185
-0.304393647015879 0.275256134349631 0.730957031250000 212 202 184
-0.299513588546687 0.274554613523200 0.719238281250000 211 201 183
-0.294633530077494 0.273732150841905 0.707519531250000 208 200 182
-0.290363478916951 0.273363038403230 0.697265625000000 206 200 181
-0.286093427756408 0.272888101841549 0.687011718750000 206 200 181
-0.281823376595864 0.272307341156862 0.676757812500000 207 199 181
-0.277553325435321 0.271620756349168 0.666503906250000 203 195 176
-0.273689945813877 0.271231365792602 0.657226562500000 198 192 173
-0.269826566192433 0.270746229600935 0.647949218750000 201 194 175
-0.266166522340538 0.270371896205187 0.639160156250000 204 195 176
-0.262709814258194 0.270115924471287 0.630859375000000 205 197 178
-0.259253106175849 0.269774285590190 0.622558593750000 203 193 175
-0.255796398093504 0.269346979561899 0.614257812500000 201 190 172
-0.252543025780709 0.269050633305336 0.606445312500000 207 196 178
-0.249492989237464 0.268892805686433 0.599121093750000 205 194 176
-0.246442952694219 0.268659389408239 0.591796875000000 203 193 175
-0.243392916150974 0.268350384470754 0.584472656250000 201 193 175
-0.240749551146828 0.268419201687641 0.578125000000000 206 199 181
-0.238106186142682 0.268422508733143 0.571777343750000 206 200 182
-0.235462821138536 0.268360305607259 0.565429687500000 193 185 168
-0.233022791903940 0.268466856582751 0.559570312500000 196 187 171
-0.230582762669343 0.268512936630810 0.553710937500000 197 188 172
-0.228142733434747 0.268498545751437 0.547851562500000 191 182 166
-0.226109375739250 0.268907330222009 0.542968750000000 181 172 156
-0.223669346504654 0.268777036731724 0.537109375000000 187 178 162
-0.221432653039608 0.268833134696648 0.531738281250000 197 188 172
-0.219399295344111 0.269083182982711 0.526855468750000 197 188 172
-0.217772609187713 0.269786642082435 0.522949218750000 198 189 173
-0.215942587261766 0.270195365981966 0.518554687500000 198 189 173
-0.214925908414018 0.271586500168112 0.516113281250000 192 183 167
-0.213095886488070 0.271914596164401 0.511718750000000 191 183 165
-0.212079207640322 0.273245259423114 0.509277343750000 200 192 173
-1.148668364119499 -1.254211146660257 2.792968750000000 157 150 126
-1.143848776577739 -1.234596955491406 2.781250000000000 158 151 127
-1.147061834938912 -1.223672843738614 2.789062500000000 159 151 127
-1.147061834938912 -1.209280763009722 2.789062500000000 160 152 126
-1.148668364119499 -1.196562195841448 2.792968750000000 162 153 127
-1.151078157890379 -1.184629993013956 2.798828125000000 162 153 127
-1.151078157890379 -1.170187519845537 2.798828125000000 163 154 128
-1.151881422480672 -1.156551567993711 2.800781250000000 166 155 129
-1.153487951661259 -1.143691901994762 2.804687500000000 165 154 129
-1.155094480841846 -1.130791922044191 2.808593750000000 165 156 131
-1.157504274612726 -1.118627913994874 2.814453125000000 168 158 132
-1.159110803793313 -1.105637227653155 2.818359375000000 164 155 129
-1.159914068383606 -1.091850098482748 2.820312500000000 167 158 131
-1.159914068383606 -1.077296761947371 2.820312500000000 169 159 133
-1.159110803793313 -1.062007453510738 2.818359375000000 171 160 134
-1.159110803793313 -1.047464195463266 2.818359375000000 169 160 136
-1.159110803793313 -1.032920937415793 2.818359375000000 170 161 137
-1.158307539203019 -1.017671942930782 2.816406250000000 168 160 136
-1.157504274612726 -1.002443105421582 2.814453125000000 167 159 134
-1.157504274612726 -0.987920004349921 2.814453125000000 166 158 133
-1.157504274612726 -0.973396903278259 2.814453125000000 167 158 134
-1.157504274612726 -0.958873802206597 2.814453125000000 167 159 135
-1.156701010022432 -0.943695357136924 2.812500000000000 166 159 134
-1.155897745432139 -0.928537069043062 2.810546875000000 168 160 135
-1.155094480841846 -0.913398937925010 2.808593750000000 169 161 137
-1.154291216251552 -0.898280963782769 2.806640625000000 169 161 137
-1.153487951661259 -0.883183146616339 2.804687500000000 169 161 137
-1.152684687070966 -0.868105486425719 2.802734375000000 167 159 135
-1.151881422480672 -0.853047983210911 2.800781250000000 167 160 135
-1.151078157890379 -0.838010636971913 2.798828125000000 167 160 135
-1.150274893300086 -0.822993447708726 2.796875000000000 168 161 136
-1.149471628709792 -0.807996415421349 2.794921875000000 167 160 135
-1.148668364119499 -0.793019540109784 2.792968750000000 166 159 134
-1.147865099529206 -0.778062821774029 2.791015625000000 166 158 133
-1.147061834938912 -0.763126260414085 2.789062500000000 167 158 134
-1.146258570348619 -0.748209856029952 2.787109375000000 166 158 134
-1.145455305758326 -0.733313608621629 2.785156250000000 167 159 135
-1.144652041168032 -0.718437518189118 2.783203125000000 170 162 138
-1.143848776577739 -0.703581584732417 2.781250000000000 171 162 139
-1.143045511987445 -0.688745808251526 2.779296875000000 172 163 140
-1.143045511987445 -0.674404119962162 2.779296875000000 172 163 140
-1.142242247397152 -0.659598578944988 2.777343750000000 173 165 141
-1.141438982806859 -0.644813194903625 2.775390625000000 171 163 139
-1.140635718216565 -0.630047967838072 2.773437500000000 171 163 139
-1.140635718216565 -0.615736515012424 2.773437500000000 171 163 140
-1.140635718216565 -0.601425062186775 2.773437500000000 172 164 142
-1.139832453626272 -0.586700149072844 2.771484375000000 172 164 142
-1.139029189035979 -0.571995392934724 2.769531250000000 172 162 139
-1.139029189035979 -0.557704097084887 2.769531250000000 173 165 142
-1.138225924445685 -0.543029576410483 2.767578125000000 175 167 143
-1.137422659855392 -0.528375212711889 2.765625000000000 176 167 143
-1.136619395265099 -0.513741005989107 2.763671875000000 174 166 143
-1.135012866084512 -0.498773966881285 2.759765625000000 175 166 143
-1.134209601494218 -0.484190152598030 2.757812500000000 174 166 143
-1.133406336903925 -0.469626495290585 2.755859375000000 172 164 141
-1.131799807723339 -0.454760241061817 2.751953125000000 172 164 141
-1.130996543133045 -0.440246976193899 2.750000000000000 173 165 142
-1.130193278542752 -0.425753868301792 2.748046875000000 174 167 144
-1.128586749362165 -0.410988398952078 2.744140625000000 174 167 144
-1.127783484771872 -0.396545683499498 2.742187500000000 174 166 142
-1.126980220181578 -0.382123125022729 2.740234375000000 174 167 142
-1.125373691000992 -0.367458440552068 2.736328125000000 176 169 144
-1.123767161820405 -0.352834070033030 2.732421875000000 179 171 147
-1.123767161820405 -0.338734265453394 2.732421875000000 178 171 146
-1.122963897230112 -0.324402413367773 2.730468750000000 178 170 146
-1.121357368049525 -0.309868749239883 2.726562500000000 178 171 147
-1.119750838868938 -0.295375399063615 2.722656250000000 179 172 148
-1.118947574278645 -0.281124174881237 2.720703125000000 179 172 149
-1.118947574278645 -0.267084841229034 2.720703125000000 180 171 148
-1.118144309688351 -0.252863852510372 2.718750000000000 181 172 149
-1.117341045098058 -0.238663020767521 2.716796875000000 182 172 149
-1.115734515917471 -0.224320847909833 2.712890625000000 183 173 149
-1.114931251327178 -0.210170408606510 2.710937500000000 182 173 150
-1.114127986736885 -0.196040126278996 2.708984375000000 179 172 149
-1.112521457556298 -0.181798738300362 2.705078125000000 182 174 152
-1.111718192966004 -0.167718848412376 2.703125000000000 183 174 153
-1.109308399195125 -0.153436904197959 2.697265625000000 182 174 153
-1.108505134604831 -0.139417485237405 2.695312500000000 183 176 156
-1.106898605424244 -0.125327274577352 2.691406250000000 182 175 155
-1.106095340833951 -0.111358248056325 2.689453125000000 185 177 156
-1.104488811653364 -0.097338586811609 2.685546875000000 188 180 160
-1.102882282472778 -0.083359239518515 2.681640625000000 189 181 162
-1.102079017882484 -0.069470840900732 2.679687500000000 188 181 161
-1.101275753292191 -0.055602599258758 2.677734375000000 187 182 162
-1.100472488701898 -0.041754514592596 2.675781250000000 186 181 161
-1.101275753292191 -0.027967385422189 2.677734375000000 188 182 162
-1.099669224111604 -0.014129136959771 2.673828125000000 188 181 162
-1.098865959521311 -0.000331444733136 2.671875000000000 188 182 161
-1.097259430340724 0.013436254313945 2.667968750000000 188 182 161
-1.095652901160137 0.027163639409405 2.664062500000000 186 180 159
-1.094046371979551 0.040850710553242 2.660156250000000 185 179 160
-1.090030049028084 0.054377252743079 2.650390625000000 186 181 161
-1.079587609354270 0.067401808810939 2.625000000000000 187 181 164
-1.062719052958110 0.079682495047094 2.583984375000000 182 175 158
-1.045047231971656 0.091469577660047 2.541015625000000 120 104 71
-1.041834173610483 0.104260147948629 2.533203125000000 111 92 54
-1.039424379839603 0.117060554440954 2.527343750000000 110 93 55
-1.037817850659016 0.129901032600740 2.523437500000000 110 93 55
-1.037817850659016 0.142922438974499 2.523437500000000 110 93 55
-1.036211321478429 0.155702446206852 2.519531250000000 110 93 55
-1.036211321478429 0.168703695604800 2.519531250000000 109 92 53
-1.035408056888136 0.181564088456234 2.517578125000000 110 92 53
-1.036211321478429 0.194706194400696 2.519531250000000 120 103 68
-1.036211321478429 0.207707443798645 2.519531250000000 121 104 69
-1.035408056888136 0.220537601186363 2.517578125000000 117 99 64
-1.035408056888136 0.233528772096406 2.517578125000000 121 104 68
-1.034604792297842 0.246328694020408 2.515625000000000 118 101 64
-1.034604792297842 0.259309786442545 2.515625000000000 112 94 59
-1.034604792297842 0.272290878864683 2.515625000000000 111 93 56
-1.035408056888136 0.285493455736577 2.517578125000000 111 93 57
-1.036211321478429 0.298716189584282 2.519531250000000 111 94 56
-1.037014586068723 0.311959080407798 2.521484375000000 111 93 55
-1.037014586068723 0.324970408293652 2.521484375000000 110 93 55
-1.037817850659016 0.338243534580884 2.523437500000000 113 95 56
-1.037817850659016 0.351264940954643 2.523437500000000 123 105 66
-1.040227644429896 0.365132213459969 2.529296875000000 126 108 67
-1.042637438200776 0.379059956892728 2.535156250000000 126 108 66
-1.044243967381363 0.392746058899919 2.539062500000000 125 107 67
-1.041834173610483 0.404911520654205 2.533203125000000 123 106 66
-1.031391733936669 0.413793818192952 2.507812500000000 114 96 68
-1.010506854589042 0.418093553428849 2.457031250000000 214 203 185
-0.918934691295599 0.391735692486976 2.234375000000000 229 221 201
-0.847444142759491 0.371892556115847 2.060546875000000 231 223 204
-0.743823010611648 0.335752117680268 1.808593750000000 209 201 184
-0.708881000933887 0.328874010557968 1.723632812500000 224 218 199
-0.674340623551272 0.321310445116022 1.639648437500000 226 219 199
-0.650644318137618 0.318183182760215 1.582031250000000 228 222 202
-0.631365967970578 0.316677224394287 1.535156250000000 226 220 200
-0.611284353213244 0.314274522888941 1.486328125000000 226 220 200
-0.591202738455910 0.311367896988325 1.437500000000000 225 219 199
-0.573129285174309 0.309040178431865 1.393554687500000 226 220 200
-0.557465625663589 0.307588561470689 1.355468750000000 225 219 199
-0.541801966152869 0.305743883481203 1.317382812500000 221 215 195
-0.525736674347001 0.303274460383664 1.278320312500000 222 216 196
-0.510876279426574 0.301112067740996 1.242187500000000 222 216 196
-0.497622413686734 0.299543821316423 1.209960937500000 220 214 194
-0.484368547946894 0.297642984790972 1.177734375000000 218 212 192
-0.471516314502200 0.295661399220198 1.146484375000000 219 213 193
-0.459868977942946 0.294127942934970 1.118164062500000 219 212 192
-0.449426538269133 0.293087969130864 1.092773437500000 220 212 191
-0.438984098595319 0.291785954641218 1.067382812500000 219 212 192
-0.428943291216652 0.290493897497397 1.042968750000000 219 214 194
-0.418902483837985 0.288949878155940 1.018554687500000 218 212 193
-0.410267389492332 0.288141164434294 0.997558593750000 218 210 192
-0.401230662851531 0.286828647459460 0.975585937500000 217 209 190
-0.392796384653451 0.285727597017518 0.955078125000000 220 210 191
-0.384763738750518 0.284712092580690 0.935546875000000 214 203 186
-0.377534357437877 0.284099485375916 0.917968750000000 215 204 187
-0.370505792272810 0.283459101758362 0.900878906250000 215 209 190
-0.363678043255317 0.282798500593957 0.884277343750000 215 209 190
-0.356649478090250 0.281807889521691 0.867187500000000 214 206 188
-0.350223361367903 0.281124490617418 0.851562500000000 212 203 185
-0.344198876940703 0.280607265621503 0.836914062500000 211 202 184
-0.338174392513503 0.279938863307007 0.822265625000000 204 196 177
-0.332350724233876 0.279288037775306 0.808105468750000 208 199 181
-0.326928688249396 0.278833621615678 0.794921875000000 212 203 185
-0.321305836117342 0.278069352524000 0.781250000000000 216 206 188
-0.315883800132862 0.277340297568951 0.768066406250000 212 202 184
-0.310461764148382 0.276475183027179 0.754882812500000 210 200 182
-0.305441360459049 0.275836713321197 0.742675781250000 216 205 188
-0.300420956769715 0.275072262516398 0.730468750000000 210 200 182
-0.295601369227955 0.274368222067991 0.718750000000000 207 197 179
-0.290982597833768 0.273732150841905 0.707519531250000 208 199 181
-0.286765458734728 0.273363038403230 0.697265625000000 204 198 179
-0.282347503488115 0.272694151520411 0.686523437500000 207 199 181
-0.278331180536648 0.272307341156862 0.676757812500000 210 203 184
-0.274114041437608 0.271620756349168 0.666503906250000 202 195 176
-0.270298534633714 0.271231365792602 0.657226562500000 203 198 178
-0.266483027829821 0.270746229600935 0.647949218750000 209 201 183
-0.262868337173501 0.270371896205187 0.639160156250000 203 194 176
-0.259253646517181 0.269906856418290 0.630371093750000 202 196 177
-0.256040588156007 0.269774285590190 0.622558593750000 207 197 179
-0.252626713647260 0.269346979561899 0.614257812500000 202 191 173
-0.249413655286087 0.269050633305336 0.606445312500000 206 196 178
-0.246401413072487 0.268892805686433 0.599121093750000 205 195 177
-0.243389170858887 0.268659389408239 0.591796875000000 206 197 179
-0.240577744792860 0.268574570255609 0.584960937500000 206 197 179
-0.237565502579260 0.268192496280810 0.577636718750000 203 194 176
-0.234954892660807 0.268193283704335 0.571289062500000 199 192 174
-0.232545098889927 0.268360305607259 0.565429687500000 199 191 174
-0.230135305119046 0.268466856582751 0.559570312500000 197 188 172
-0.227725511348166 0.268512936630810 0.553710937500000 195 187 170
-0.225315717577286 0.268498545751437 0.547851562500000 194 185 169
-0.223106739953980 0.268665507083320 0.542480468750000 187 178 162
-0.220897762330673 0.268777036731724 0.537109375000000 190 181 165
-0.218889600854939 0.269079997079290 0.532226562500000 194 185 169
-0.216680623231633 0.269083182982711 0.526855468750000 195 186 170
-0.215074094051046 0.269786642082435 0.522949218750000 196 187 171
-0.213065932575313 0.269940944733396 0.518066406250000 200 191 175
-0.212061851837446 0.271329559297565 0.515625000000000 194 185 168
-0.210254506509286 0.271655135671877 0.511230468750000 200 191 173
-0.209250425771419 0.272983279308614 0.508789062500000 200 191 174
-1.159638081691212 -1.282277410082025 2.855468750000000 185 181 168
-1.152499406769720 -1.259739730568127 2.837890625000000 185 182 167
-1.152499406769720 -1.245095687641601 2.837890625000000 188 183 169
-1.151706220667332 -1.229604809446860 2.835937500000000 189 184 171
-1.153292592872108 -1.216644358568857 2.839843750000000 190 184 170
-1.157258523384048 -1.206123628616442 2.849609375000000 190 184 169
-1.158051709486436 -1.192235714566981 2.851562500000000 191 186 170
-1.158844895588824 -1.178327643541710 2.853515625000000 192 186 172
-1.158844895588824 -1.163602972711941 2.853515625000000 192 186 173
-1.161224453895988 -1.151237394904517 2.859375000000000 193 187 174
-1.163604012203151 -1.138811346169661 2.865234375000000 194 188 175
-1.164397198305540 -1.124792411777430 2.867187500000000 195 189 176
-1.164397198305540 -1.109997191532323 2.867187500000000 195 188 175
-1.164397198305540 -1.095201971287216 2.867187500000000 195 189 176
-1.163604012203151 -1.079670779140854 2.865234375000000 196 191 178
-1.163604012203151 -1.064885637383653 2.865234375000000 196 192 180
-1.163604012203151 -1.050100495626451 2.865234375000000 197 192 180
-1.162810826100763 -1.034609617431711 2.863281250000000 197 193 181
-1.162017639998376 -1.019138896212781 2.861328125000000 198 193 182
-1.162810826100763 -1.005059490893119 2.863281250000000 198 194 182
-1.162017639998376 -0.989608926650000 2.861328125000000 198 195 183
-1.162017639998376 -0.974843941868609 2.861328125000000 198 196 184
-1.161224453895988 -0.959423613089206 2.859375000000000 200 196 186
-1.159638081691212 -0.943378175775508 2.855468750000000 200 197 186
-1.159638081691212 -0.928643426457834 2.855468750000000 200 197 186
-1.158844895588824 -0.913283568605863 2.853515625000000 201 197 187
-1.158051709486436 -0.897943867729704 2.851562500000000 202 198 188
-1.157258523384048 -0.882624323829355 2.849609375000000 202 199 188
-1.156465337281660 -0.867324936904817 2.847656250000000 202 199 188
-1.156465337281660 -0.852630501538764 2.847656250000000 202 199 188
-1.155672151179272 -0.837361350077942 2.845703125000000 203 199 188
-1.154878965076884 -0.822112355592931 2.843750000000000 203 200 188
-1.154085778974496 -0.806883518083731 2.841796875000000 204 200 189
-1.154085778974496 -0.792219318181394 2.841796875000000 204 200 189
-1.153292592872108 -0.777020716135910 2.839843750000000 205 201 190
-1.152499406769720 -0.761842271066237 2.837890625000000 207 202 191
-1.152499406769720 -0.747198228139711 2.837890625000000 206 202 191
-1.150913034564944 -0.731545851854323 2.833984375000000 207 202 191
-1.149326662360168 -0.715933789520556 2.830078125000000 207 202 192
-1.148533476257780 -0.700846050842031 2.828125000000000 207 202 192
-1.147740290155392 -0.685778469139317 2.826171875000000 207 202 192
-1.146947104053004 -0.670731044412414 2.824218750000000 208 202 191
-1.146153917950616 -0.655703776661321 2.822265625000000 208 202 191
-1.145360731848228 -0.640696665886040 2.820312500000000 208 202 191
-1.144567545745840 -0.625709712086569 2.818359375000000 208 202 191
-1.144567545745840 -0.611166454039096 2.818359375000000 208 203 192
-1.143774359643452 -0.596209735703341 2.816406250000000 209 203 192
-1.143774359643452 -0.581676556143775 2.816406250000000 209 203 192
-1.143774359643452 -0.567143376584208 2.816406250000000 209 204 193
-1.142981173541064 -0.552226972200074 2.814453125000000 210 204 192
-1.141394801336288 -0.536957578455091 2.810546875000000 210 204 192
-1.139808429131512 -0.521728498661729 2.806640625000000 210 204 193
-1.139015243029124 -0.506892722180839 2.804687500000000 210 204 193
-1.137428870824349 -0.491734191802815 2.800781250000000 210 204 194
-1.136635684721961 -0.476948807761452 2.798828125000000 210 204 195
-1.135842498619573 -0.462183580695899 2.796875000000000 210 204 194
-1.135049312517185 -0.447438510606157 2.794921875000000 210 204 193
-1.134256126414797 -0.432713597492227 2.792968750000000 209 204 193
-1.133462940312409 -0.418008841354106 2.791015625000000 208 204 192
-1.132669754210021 -0.403324242191797 2.789062500000000 208 204 191
-1.131876568107633 -0.388659800005298 2.787109375000000 208 204 191
-1.130290195902857 -0.373753231824909 2.783203125000000 207 204 191
-1.129497009800469 -0.359139182077937 2.781250000000000 208 205 192
-1.127910637595693 -0.344303163312885 2.777343750000000 208 205 192
-1.127910637595693 -0.329971553511426 2.777343750000000 208 204 193
-1.127117451493305 -0.315417974691887 2.775390625000000 207 204 192
-1.126324265390917 -0.300884552848158 2.773437500000000 207 204 191
-1.124737893186141 -0.286169475937971 2.769531250000000 207 204 191
-1.124737893186141 -0.271878180088133 2.769531250000000 208 204 191
-1.123944707083753 -0.257405229171837 2.767578125000000 208 204 191
-1.123151520981365 -0.242952435231352 2.765625000000000 208 203 191
-1.123151520981365 -0.228681296357325 2.765625000000000 207 203 190
-1.121565148776589 -0.214107318277813 2.761718750000000 206 203 190
-1.119978776571813 -0.199573654149923 2.757812500000000 206 204 191
-1.119185590469425 -0.185211566600586 2.755859375000000 206 203 191
-1.117599218264649 -0.170748451888033 2.751953125000000 206 202 190
-1.116806032162261 -0.156436756778223 2.750000000000000 206 202 190
-1.116012846059873 -0.142145218644224 2.748046875000000 205 202 190
-1.115219659957485 -0.127873837486035 2.746093750000000 205 202 189
-1.114426473855098 -0.113622613303658 2.744140625000000 206 201 189
-1.114426473855098 -0.099462337796590 2.744140625000000 206 201 190
-1.114426473855098 -0.085302062289522 2.744140625000000 204 201 189
-1.113633287752710 -0.071091152058766 2.742187500000000 204 201 189
-1.113633287752710 -0.056940955039604 2.742187500000000 203 200 189
-1.113633287752710 -0.042790758020442 2.742187500000000 203 200 187
-1.112840101650322 -0.028620161741307 2.740234375000000 202 199 187
-1.111253729445546 -0.014459401665916 2.736328125000000 202 199 187
-1.110460543343158 -0.000339197826308 2.734375000000000 201 199 185
-1.108080985035994 0.013741176630001 2.728515625000000 201 199 183
-1.105701426728830 0.027761080158878 2.722656250000000 200 197 184
-1.104908240626442 0.041780499119432 2.720703125000000 200 197 184
-1.107287798933606 0.055940047774015 2.726562500000000 200 197 183
-1.103321868421666 0.069758866113108 2.716796875000000 200 198 183
-1.074767168735699 0.081609811631756 2.646484375000000 196 190 177
-1.034314677513912 0.091680499053575 2.546875000000000 122 105 78
-1.028762374797197 0.104260147948629 2.533203125000000 110 92 55
-1.027176002592421 0.117151018547941 2.529296875000000 111 93 55
-1.026382816490033 0.130102117790524 2.527343750000000 111 93 55
-1.024796444285257 0.142922438974499 2.523437500000000 110 93 55
-1.024003258182869 0.155823145777555 2.521484375000000 110 93 55
-1.024003258182869 0.168834473663408 2.521484375000000 108 93 53
-1.023210072080481 0.181704945002748 2.519531250000000 109 93 54
-1.024003258182869 0.194857129435116 2.521484375000000 110 93 55
-1.024003258182869 0.207868457320969 2.521484375000000 113 96 58
-1.023210072080481 0.220708693196593 2.519531250000000 110 93 55
-1.024003258182869 0.233891113092676 2.521484375000000 107 90 54
-1.023210072080481 0.246711191992489 2.519531250000000 110 93 57
-1.023210072080481 0.259712441390437 2.519531250000000 116 98 60
-1.023210072080481 0.272713690788386 2.519531250000000 116 98 60
-1.024003258182869 0.285936424636091 2.521484375000000 116 98 61
-1.024003258182869 0.298947752521944 2.521484375000000 117 99 61
-1.024796444285257 0.312200721833366 2.523437500000000 116 98 60
-1.025589630387645 0.325473848120598 2.525390625000000 116 98 60
-1.026382816490033 0.338767131383640 2.527343750000000 117 99 59
-1.026382816490033 0.351808694733210 2.527343750000000 117 99 59
-1.027176002592421 0.365132213459969 2.529296875000000 117 99 59
-1.030348747001973 0.379351990757822 2.537109375000000 117 99 59
-1.031141933104361 0.392746058899919 2.539062500000000 117 99 58
-1.027969188694809 0.404599329813300 2.531250000000000 114 96 54
-1.016864583261377 0.413149279535330 2.503906250000000 107 89 64
-0.986723511370634 0.413440683994824 2.429687500000000 214 202 186
-0.879643387548258 0.379750771825224 2.166015625000000 229 222 202
-0.800324777309461 0.355677335659611 1.970703125000000 230 224 204
-0.744801750142304 0.340465700325888 1.833984375000000 225 218 199
-0.705539038074099 0.331482642936332 1.737304687500000 228 220 200
-0.670242256517834 0.323415516525358 1.650390625000000 227 220 199
-0.644463708190225 0.319165229620586 1.586914062500000 227 221 201
-0.624237462579332 0.317080121626341 1.537109375000000 225 219 199
-0.604407810019633 0.314687498608900 1.488281250000000 226 220 200
-0.584181564408740 0.311579424092258 1.438476562500000 225 219 199
-0.566731470156204 0.309473311127635 1.395507812500000 226 220 200
-0.550867748108445 0.307810167062527 1.356445312500000 223 217 197
-0.535004026060686 0.305743883481203 1.317382812500000 222 216 196
-0.519140304012926 0.303274460383664 1.278320312500000 221 215 195
-0.504466361118749 0.301112067740996 1.242187500000000 222 216 196
-0.491378790429347 0.299543821316423 1.209960937500000 221 215 195
-0.478291219739946 0.297642984790972 1.177734375000000 222 216 196
-0.465996835152932 0.295913240275751 1.147460937500000 219 213 193
-0.454099043617113 0.294127942934970 1.118164062500000 219 213 193
-0.443391031234875 0.292826049587405 1.091796875000000 219 213 193
-0.433476204955025 0.291785954641218 1.067382812500000 220 214 194
-0.423561378675176 0.290493897497397 1.042968750000000 218 212 192
-0.413646552395326 0.288949878155940 1.018554687500000 219 213 193
-0.404921505269059 0.288000126174659 0.997070312500000 219 213 194
-0.396394754668388 0.286972205341071 0.976074218750000 215 209 190
-0.387868004067717 0.285727597017518 0.955078125000000 216 210 191
-0.379936143043837 0.284712092580690 0.935546875000000 217 209 191
-0.372797468122346 0.284099485375916 0.917968750000000 216 208 190
-0.365857089726451 0.283459101758362 0.900878906250000 217 209 191
-0.358916711330556 0.282642344602464 0.883789062500000 216 210 191
-0.352174629460259 0.281807889521691 0.867187500000000 214 208 189
-0.346027437166752 0.281285685852864 0.852050781250000 212 204 186
-0.339880244873245 0.280607265621503 0.836914062500000 211 202 184
-0.333931349105335 0.279938863307007 0.822265625000000 213 204 185
-0.328180749863022 0.279288037775306 0.808105468750000 212 202 184
-0.322826743671904 0.278833621615678 0.794921875000000 213 204 186
-0.317274440955188 0.278069352524000 0.781250000000000 212 202 184
-0.311920434764069 0.277340297568951 0.768066406250000 210 199 181
-0.306566428572950 0.276475183027179 0.754882812500000 211 201 183
-0.301609015433025 0.275836713321197 0.742675781250000 213 203 185
-0.296651602293101 0.275072262516398 0.730468750000000 210 200 182
-0.291892485678773 0.274368222067991 0.718750000000000 208 198 180
-0.287331665590042 0.273732150841905 0.707519531250000 205 198 180
-0.283167438552505 0.273363038403230 0.697265625000000 205 199 180
-0.278804914989371 0.272694151520411 0.686523437500000 208 200 181
-0.274640687951834 0.272110871213747 0.676269531250000 211 201 184
-0.270674757439895 0.271620756349168 0.666503906250000 202 193 175
-0.266907123453552 0.271231365792602 0.657226562500000 198 190 171
-0.263139489467209 0.270746229600935 0.647949218750000 207 199 181
-0.259570152006463 0.270371896205187 0.639160156250000 203 195 177
-0.256000814545717 0.269906856418290 0.630371093750000 203 195 176
-0.252629773610568 0.269562697915218 0.622070312500000 205 196 178
-0.249457029201016 0.269346979561899 0.614257812500000 204 195 177
-0.246284284791465 0.269050633305336 0.606445312500000 202 192 174
-0.243309836907510 0.268892805686433 0.599121093750000 206 196 178
-0.240335389023555 0.268659389408239 0.591796875000000 205 196 178
-0.237360941139600 0.268350384470754 0.584472656250000 205 196 178
-0.234783086306839 0.268419201687641 0.578125000000000 197 190 173
-0.232006934948481 0.268193283704335 0.571289062500000 192 184 168
-0.229627376641317 0.268360305607259 0.565429687500000 200 191 174
-0.227049521808556 0.268232592309991 0.559082031250000 200 191 175
-0.224868260026989 0.268512936630810 0.553710937500000 200 191 175
-0.222488701719826 0.268498545751437 0.547851562500000 194 185 169
-0.220307439938259 0.268665507083320 0.542480468750000 193 184 168
-0.218126178156692 0.268777036731724 0.537109375000000 198 189 173
-0.215944916375125 0.268833134696648 0.531738281250000 190 181 165
-0.213961951119155 0.269083182982711 0.526855468750000 197 188 172
-0.212177282388782 0.269534740455840 0.522460937500000 198 189 173
-0.210194317132812 0.269686523484825 0.517578125000000 202 192 174
-0.209202834504827 0.271072618427018 0.515136718750000 198 189 171
-0.207418165774454 0.271395675179354 0.510742187500000 198 189 173
-0.206624979672066 0.272983279308614 0.508789062500000 193 184 170
-1.193456004471457 -1.336655795461701 2.976562500000000 192 190 179
-1.200503973001800 -1.329099110090116 2.994140625000000 192 190 179
-1.187974251170079 -1.299938168033247 2.962890625000000 193 190 180
-1.191106681628009 -1.288036442953632 2.970703125000000 193 190 180
-1.229478954737656 -1.313708145084667 3.066406250000000 194 190 180
-1.231828277581104 -1.300364953950420 3.072265625000000 195 191 180
-1.229478954737656 -1.282061693061754 3.066406250000000 194 191 181
-1.220081663363865 -1.256560211251187 3.042968750000000 194 191 181
-1.209118156761109 -1.229707727492975 3.015625000000000 195 192 182
-1.194239112085940 -1.199205619692205 2.978515625000000 195 192 182
-1.191889789242492 -1.181507068077862 2.972656250000000 196 193 182
-1.190323574013527 -1.164635194755922 2.968750000000000 198 193 182
-1.187191143555597 -1.146291377631472 2.960937500000000 198 193 183
-1.187191143555597 -1.131012389966907 2.960937500000000 199 194 185
-1.187974251170079 -1.116469374203596 2.962890625000000 198 195 185
-1.188757358784562 -1.101906201464475 2.964843750000000 198 195 184
-1.189540466399044 -1.087322871749543 2.966796875000000 198 195 184
-1.189540466399044 -1.072013648621261 2.966796875000000 198 195 184
-1.189540466399044 -1.056704425492979 2.966796875000000 199 196 185
-1.187974251170079 -1.040024043441242 2.962890625000000 199 196 185
-1.187974251170079 -1.024734977288771 2.962890625000000 199 197 186
-1.187974251170079 -1.009445911136300 2.962890625000000 199 197 186
-1.186408035941114 -0.992846156987806 2.958984375000000 201 198 188
-1.184841820712149 -0.976286716790933 2.955078125000000 200 198 188
-1.184841820712149 -0.961037964590084 2.955078125000000 201 198 188
-1.185624928326631 -0.946414320923530 2.957031250000000 201 198 188
-1.185624928326631 -0.931155490234775 2.957031250000000 201 199 188
-1.187191143555597 -0.917106562662990 2.960937500000000 202 199 188
-1.187191143555597 -0.901827574998424 2.960937500000000 202 199 189
-1.189540466399044 -0.888302971081881 2.966796875000000 202 199 189
-1.191106681628009 -0.874143180143137 2.970703125000000 202 199 190
-1.191106681628009 -0.858813800039044 2.970703125000000 203 200 189
-1.191106681628009 -0.843484419934952 2.970703125000000 202 200 189
-1.192672896856975 -0.829244001092964 2.974609375000000 203 200 189
-1.193456004471457 -0.814428866156208 2.976562500000000 205 200 189
-1.196588434929388 -0.801166545209367 2.984375000000000 205 201 190
-1.195022219700422 -0.784738125355264 2.980468750000000 204 201 190
-1.187974251170079 -0.764820852696766 2.962890625000000 205 200 189
-1.184841820712149 -0.747555433778193 2.955078125000000 205 201 190
-1.183275605483184 -0.731338662170103 2.951171875000000 205 201 190
-1.180143175025253 -0.714214342082205 2.943359375000000 205 201 190
-1.177793852181806 -0.697634502625360 2.937500000000000 206 201 190
-1.174661421723875 -0.680661359856043 2.929687500000000 206 201 190
-1.173095206494910 -0.664656236493966 2.925781250000000 206 201 190
-1.170745883651462 -0.648257809819418 2.919921875000000 206 201 190
-1.169179668422497 -0.632343392848490 2.916015625000000 207 202 191
-1.166830345579049 -0.616055829540901 2.910156250000000 207 202 191
-1.166047237964567 -0.600635500761498 2.908203125000000 207 202 191
-1.165264130350084 -0.585235328957906 2.906250000000000 207 202 191
-1.164481022735602 -0.569855314130125 2.904296875000000 207 202 191
-1.162914807506636 -0.554122309941494 2.900390625000000 207 202 191
-1.162131699892154 -0.538792687553240 2.898437500000000 207 202 191
-1.161348592277671 -0.523483222140797 2.896484375000000 208 203 192
-1.160565484663189 -0.508193913704164 2.894531250000000 208 203 192
-1.159782377048706 -0.492924762243342 2.892578125000000 208 203 192
-1.158999269434224 -0.477675767758331 2.890625000000000 208 203 191
-1.158216161819741 -0.462446930249131 2.888671875000000 207 202 190
-1.158216161819741 -0.447540846637065 2.888671875000000 205 202 189
-1.157433054205258 -0.432342244591581 2.886718750000000 205 202 189
-1.156649946590776 -0.417163799521908 2.884765625000000 205 202 189
-1.154300623747328 -0.401460788512831 2.878906250000000 205 202 189
-1.153517516132845 -0.386342814370590 2.876953125000000 205 202 189
-1.152734408518363 -0.371244997204160 2.875000000000000 205 202 189
-1.151951300903880 -0.356167337013540 2.873046875000000 205 202 189
-1.151168193289398 -0.341109833798732 2.871093750000000 205 202 189
-1.151168193289398 -0.326294456577814 2.871093750000000 205 202 189
-1.151168193289398 -0.311479079356896 2.871093750000000 204 201 188
-1.149601978060433 -0.296260078051440 2.867187500000000 205 202 189
-1.148818870445950 -0.281273124251969 2.865234375000000 205 202 189
-1.147252655216985 -0.266124672361850 2.861328125000000 204 201 188
-1.144903332373537 -0.250844957844800 2.855468750000000 203 201 188
-1.143337117144572 -0.235787212345829 2.851562500000000 203 201 188
-1.141770901915607 -0.220769780798481 2.847656250000000 204 201 188
-1.139421579072159 -0.205651322087916 2.841796875000000 203 200 188
-1.137855363843194 -0.190724596931716 2.837890625000000 204 201 188
-1.137072256228711 -0.175959369866163 2.835937500000000 203 200 187
-1.136289148614229 -0.161214299776422 2.833984375000000 203 200 187
-1.136289148614229 -0.146590413825706 2.833984375000000 203 200 187
-1.135506040999746 -0.131875579199681 2.832031250000000 203 200 187
-1.135506040999746 -0.117261771736871 2.832031250000000 202 199 186
-1.135506040999746 -0.102647964274061 2.832031250000000 204 199 186
-1.136289148614229 -0.088094870022845 2.833984375000000 202 199 186
-1.136289148614229 -0.073470984072129 2.833984375000000 201 198 185
-1.137072256228711 -0.058887654357197 2.835937500000000 201 198 185
-1.136289148614229 -0.044223212170699 2.833984375000000 200 197 184
-1.133939825770781 -0.029538128440066 2.828125000000000 200 197 183
-1.130807395312851 -0.014903194864799 2.820312500000000 199 196 182
-1.130024287698368 -0.000349616045259 2.818359375000000 199 196 181
-1.126891857240438 0.014154297187238 2.810546875000000 199 196 181
-1.124542534396990 0.028597497208142 2.804687500000000 197 194 181
-1.123759426782507 0.043040212660722 2.802734375000000 197 194 181
