ply
format ascii 1.0
element vertex 724
property double x
property double y
property double z
property uchar red
property uchar green
property uchar blue
end_header
1.871318257499132 -1.341176385951415 7.214843750000000 112 110 101
1.873344590208931 -1.305357214216899 7.222656250000000 70 69 60
1.873344590208931 -1.268085767023854 7.222656250000000 93 92 80
1.876384089273629 -1.232811314400573 7.234375000000000 93 92 79
1.878410421983428 -1.196770408799576 7.242187500000000 92 91 76
1.879423588338327 -1.160023523093541 7.246093750000000 90 89 74
1.880436754693227 -1.123236322139054 7.250000000000000 82 81 69
1.881449921048126 -1.086408805936116 7.253906250000000 78 77 67
1.883476253757925 -1.050105851220187 7.261718750000000 76 75 65
1.887528919177522 -1.014811704229825 7.277343750000000 75 75 64
1.888542085532422 -0.977782611784631 7.281250000000000 77 77 67
1.890568418242220 -0.941217607953770 7.289062500000000 73 72 63
1.891581584597120 -0.904087727387449 7.292968750000000 74 74 64
1.891581584597120 -0.866453442958345 7.292968750000000 79 79 69
1.892594750952019 -0.829263089519347 7.296875000000000 73 73 64
1.893607917306918 -0.792032420831898 7.300781250000000 61 56 43
1.894621083661818 -0.754761436895998 7.304687500000000 67 58 42
1.894621083661818 -0.717066679594217 7.304687500000000 67 59 41
1.894621083661818 -0.679371922292435 7.304687500000000 75 68 54
1.896647416371616 -0.642363450728612 7.312500000000000 112 113 104
1.896647416371616 -0.604628378178380 7.312500000000000 120 121 111
1.897660582726516 -0.567196133248676 7.316406250000000 127 128 117
1.897660582726516 -0.529440903074218 7.316406250000000 135 136 124
1.897660582726516 -0.491685672899760 7.316406250000000 140 142 130
1.897660582726516 -0.453930442725302 7.316406250000000 142 146 131
1.896647416371616 -0.415953015427219 7.312500000000000 145 148 133
1.895634250016717 -0.378015903377586 7.308593750000000 148 152 137
1.897660582726516 -0.340664752201929 7.316406250000000 151 155 140
1.898673749081415 -0.303071246278420 7.320312500000000 154 157 140
1.898673749081415 -0.265295858479736 7.320312500000000 153 157 140
1.898673749081415 -0.227520470681053 7.320312500000000 152 156 139
1.896647416371616 -0.189542580125825 7.312500000000000 150 154 136
1.896647416371616 -0.151807507575593 7.312500000000000 147 151 135
1.899686915436315 -0.114255243414824 7.324218750000000 142 147 132
1.896647416371616 -0.076337362475128 7.312500000000000 137 141 125
1.900700081791214 -0.038684773450376 7.328125000000000 134 138 121
1.893607917306918 -0.000865827603230 7.300781250000000 134 136 118
1.845989098626648 0.035883136821520 7.117187500000000 127 115 80
1.594723842611605 0.062727034316459 6.148437500000000 120 102 59
1.559263020190127 0.092354798303854 6.011718750000000 127 108 65
1.553184022060731 0.122896378548432 5.988281250000000 136 116 73
1.553184022060731 0.153798016486202 5.988281250000000 141 120 75
1.553184022060731 0.184699654423973 5.988281250000000 142 122 75
1.554197188415630 0.215741932474177 5.992187500000000 141 121 72
1.552170855705832 0.246342132562854 5.984375000000000 141 121 72
1.554197188415630 0.277585523598169 5.992187500000000 141 121 75
1.554197188415630 0.308507319160165 5.992187500000000 140 120 74
1.555210354770530 0.339650385331497 5.996093750000000 139 118 73
1.555210354770530 0.370592338517719 5.996093750000000 139 118 73
1.556223521125429 0.401795877561728 6.000000000000000 140 119 73
1.555210354770530 0.432476244890162 5.996093750000000 139 119 73
1.558249853835228 0.464323901395099 6.007812500000000 138 118 72
1.559263020190127 0.495648386184462 6.011718750000000 136 116 70
1.562302519254825 0.527697618931655 6.023437500000000 136 116 71
1.552170855705832 0.555156935698301 5.984375000000000 132 112 67
1.555210354770530 0.587186010821269 5.996093750000000 128 109 65
1.525828530478448 0.606449976413864 5.882812500000000 121 104 62
1.165141308134273 0.486273879330794 4.492187500000000 179 165 144
0.902224639037887 0.394495485715525 3.478515625000000 221 212 190
0.844980739986073 0.386277191435943 3.257812500000000 228 220 196
0.805467252144997 0.384239180793576 3.105468750000000 228 220 197
0.764940597949023 0.380125398113121 2.949218750000000 223 215 193
0.718841528801102 0.371519013144664 2.771484375000000 221 213 191
0.678821457782577 0.364341039953353 2.617187500000000 217 209 187
0.644373801715998 0.358672340664664 2.484375000000000 215 207 185
0.611445895181769 0.352509084696731 2.357421875000000 212 204 182
0.580037738179888 0.345941981358571 2.236328125000000 205 198 177
0.552175663420155 0.340310586146892 2.128906250000000 202 196 177
0.528366254080020 0.336148844475101 2.037109375000000 203 196 176
0.504556844739885 0.331039694464709 1.945312500000000 201 195 175
0.483027059698274 0.326524152040395 1.862304687500000 200 194 174
0.464283482132635 0.323090807961057 1.790039062500000 199 193 173
0.447312945688071 0.320180751411580 1.724609375000000 198 192 172
0.430342409243507 0.316595414450547 1.659179687500000 200 194 174
0.414131747565117 0.312908941925528 1.596679687500000 200 194 174
0.400200710185250 0.310345214622509 1.542968750000000 197 191 171
0.388042713926458 0.308637375649072 1.496093750000000 198 192 172
0.376138009256390 0.306652253528247 1.450195312500000 198 192 172
0.364993179352497 0.304828044958369 1.407226562500000 198 192 172
0.354608224214779 0.303210104593944 1.367187500000000 198 192 173
0.345489727020684 0.302287023193870 1.332031250000000 200 194 175
0.336117938237865 0.300774447099485 1.295898437500000 198 192 173
0.326999441043771 0.299120651821234 1.260742187500000 198 192 173
0.318387527027126 0.297577491847652 1.227539062500000 202 196 177
0.310535487776656 0.296416979291497 1.197265625000000 202 196 177
0.302683448526186 0.294944023559846 1.166992187500000 203 197 178
0.295084700864441 0.293410479141232 1.137695312500000 202 196 177
0.287992536380145 0.292088358148414 1.110351562500000 200 194 174
0.281660246662024 0.291269830318377 1.085937500000000 201 195 176
0.275074665355178 0.289932359478817 1.060546875000000 206 200 181
0.268995667225782 0.288876863749843 1.037109375000000 210 204 185
0.263169960685111 0.287856528048978 1.014648437500000 210 204 185
0.257850837321889 0.287168561519262 0.994140625000000 211 205 186
0.252405068164305 0.286125374769714 0.973144531250000 208 202 183
0.247085944801083 0.285011578428233 0.952636718750000 210 204 185
0.242146758820949 0.284131940746945 0.933593750000000 212 206 187
0.237714156018264 0.283660263327652 0.916503906250000 210 204 185
0.233281553215579 0.283012206696385 0.899414062500000 210 204 184
0.229102242001620 0.282500098214355 0.883300781250000 210 204 186
0.224922930787660 0.281821689332464 0.867187500000000 213 207 189
0.221123556956787 0.281460589310697 0.852539062500000 213 207 188
0.217197537331552 0.280784584317548 0.837402343750000 215 209 190
0.213524809295042 0.280284842722086 0.823242187500000 213 207 189
0.209978727052894 0.279807720546735 0.809570312500000 210 204 185
0.206559290605109 0.279360776900580 0.796386718750000 213 207 188
0.203266499951686 0.278951570892704 0.783691406250000 212 206 188
0.200100355092625 0.278587661632193 0.771484375000000 213 207 188
0.196807564439202 0.277918926212413 0.758789062500000 213 207 188
0.193894711168867 0.277663248367828 0.747558593750000 215 209 190
0.190855212104168 0.277107783770031 0.735839843750000 217 211 192
0.187942358833833 0.276617773543824 0.724609375000000 216 210 191
0.185029505563497 0.276011856978320 0.713378906250000 213 207 188
0.182369943881886 0.275672913119518 0.703125000000000 217 211 191
0.179837027994638 0.275422100959560 0.693359375000000 215 209 190
0.177304112107389 0.275070500678475 0.683593750000000 213 207 189
0.174644550425779 0.274419113644177 0.673339843750000 216 210 191
0.172238280332893 0.274064935752920 0.664062500000000 216 210 192
0.169958656034369 0.273819047184732 0.655273437500000 216 210 191
0.167679031735845 0.273482449307530 0.646484375000000 216 210 192
0.165399407437322 0.273055142121312 0.637695312500000 218 212 193
0.163246428933161 0.272748722773304 0.629394531250000 214 208 189
0.161220096223362 0.272570750372592 0.621582031250000 213 207 189
0.159193763513563 0.272312147474977 0.613769531250000 214 208 190
0.157294076598127 0.272192070336770 0.606445312500000 207 201 182
0.155394389682691 0.271996402107717 0.599121093750000 215 209 190
0.153494702767254 0.271725142787818 0.591796875000000 215 209 190
0.151595015851818 0.271378292377073 0.584472656250000 216 210 191
0.149948620525106 0.271414321012328 0.578125000000000 217 211 192
0.148175579404033 0.271153082597399 0.571289062500000 215 209 190
0.146529184077321 0.271055566972159 0.564941406250000 219 213 194
0.144882788750610 0.270892539068187 0.558593750000000 214 208 189
0.143489685012623 0.271142626646552 0.553222656250000 213 207 189
0.141969935480274 0.271095447174733 0.547363281250000 209 203 184
0.140450185947925 0.270987794830237 0.541503906250000 206 200 181
0.138930436415576 0.270819669613065 0.535644531250000 210 204 185
0.137410686883227 0.270591071523216 0.529785156250000 211 205 186
0.136144228939603 0.270805825352044 0.524902343750000 216 208 190
0.134624479407254 0.270461320922898 0.519042968750000 217 208 190
0.133737958846717 0.271341102629739 0.515625000000000 215 209 190
0.132471500903092 0.271407193979903 0.510742187500000 210 204 186
0.131331688753831 0.271684882477292 0.506347656250000 212 206 187
1.619218675288749 -2.748794676990766 6.121093750000000 223 217 212
1.624385295184373 -2.725877774532037 6.140625000000000 229 223 218
1.621285323246998 -2.689048405300521 6.128906250000000 240 235 230
1.627485267121748 -2.667583315043176 6.152343750000000 251 250 248
1.627485267121748 -2.635835056887932 6.152343750000000 255 255 255
1.630585239059123 -2.609046964063608 6.164062500000000 255 255 255
1.631618563038248 -2.578871463855102 6.167968750000000 255 255 255
1.633685210996497 -2.550268721593334 6.175781250000000 255 255 255
1.635751858954747 -2.521585348834664 6.183593750000000 255 255 255
1.638851830892122 -2.494394103525829 6.195312500000000 250 249 246
1.641951802829497 -2.467081912471640 6.207031250000000 233 228 221
1.646085098745997 -2.441181218370385 6.222656250000000 222 215 206
1.649185070683371 -2.413606978201264 6.234375000000000 212 206 198
1.653318366599871 -2.387403919736625 6.250000000000000 200 193 187
1.657451662516370 -2.361039600278183 6.265625000000000 183 177 171
1.662618282411995 -2.335965832027320 6.285156250000000 199 192 183
1.671918198224119 -2.316417105842836 6.320312500000000 205 198 189
1.679151466077994 -2.293682548516426 6.347656250000000 163 158 152
1.689484705869243 -2.274839802436981 6.386718750000000 109 106 100
1.695684649743993 -2.250109177055097 6.410156250000000 114 111 105
1.697751297702242 -2.219732563861481 6.417968750000000 115 112 106
1.701884593618742 -2.191937053083024 6.433593750000000 110 107 101
1.704984565556117 -2.162669572478956 6.445312500000000 120 117 111
1.708084537493492 -2.133281146129536 6.457031250000000 132 129 122
1.711184509430866 -2.103771774034763 6.468750000000000 127 124 117
1.713251157389116 -2.072891220235507 6.476562500000000 124 121 114
1.716351129326491 -2.043160114274253 6.488281250000000 123 120 113
1.718417777284741 -2.012098141856967 6.496093750000000 121 118 111
1.721517749222116 -1.982145302029231 6.507812500000000 120 118 109
1.724617721159490 -1.952071516456142 6.519531250000000 119 117 108
1.726684369117740 -1.920727337299699 6.527343750000000 119 117 108
1.728751017075990 -1.889302527646354 6.535156250000000 119 117 108
1.730817665034240 -1.857797087496106 6.542968750000000 118 116 107
1.732884312992490 -1.826211016848956 6.550781250000000 118 116 107
1.735984284929864 -1.795613133046003 6.562500000000000 119 116 108
1.740117580846364 -1.765942963214569 6.578125000000000 119 117 109
1.744250876762864 -1.736111532389331 6.593750000000000 120 118 109
1.749417496658488 -1.707127185038712 6.613281250000000 121 119 110
1.752517468595863 -1.675964887757443 6.625000000000000 122 120 111
1.757684088491488 -1.646617703170763 6.644531250000000 122 121 111
1.764917356345362 -1.618964685533318 6.671875000000000 122 120 111
1.779383892053111 -1.597523458957356 6.726562500000000 110 107 99
1.806250315510359 -1.586408495070611 6.828125000000000 106 103 95
1.842416654779731 -1.582231923231756 6.964843750000000 129 126 117
1.870316402216104 -1.569706388906367 7.070312500000000 132 129 120
1.884782937923853 -1.545080257702768 7.125000000000000 133 131 122
1.890982881798602 -1.513274306217715 7.148437500000000 134 132 123
1.895116177715102 -1.479612926789622 7.164062500000000 136 134 124
1.899249473631602 -1.445790286367725 7.179687500000000 138 135 124
1.903382769548101 -1.411806384952024 7.195312500000000 140 137 127
1.906482741485476 -1.376914927189028 7.207031250000000 133 130 120
1.908549389443726 -1.341176385951415 7.214843750000000 112 110 100
1.909582713422851 -1.304651234111860 7.218750000000000 70 69 58
1.911649361381101 -1.268771589504668 7.226562500000000 92 91 79
1.913716009339351 -1.232811314400573 7.234375000000000 93 92 79
1.915782657297600 -1.196770408799576 7.242187500000000 92 91 78
1.916815981276725 -1.160023523093541 7.246093750000000 89 88 75
1.917849305255850 -1.123236322139054 7.250000000000000 80 79 68
1.919915953214100 -1.086993840295801 7.257812500000000 78 77 67
1.920949277193225 -1.050105851220187 7.261718750000000 76 75 65
1.924049249130600 -1.014266985118590 7.273437500000000 75 74 64
1.926115897088849 -0.977782611784631 7.281250000000000 74 73 63
1.928182545047099 -0.941217607953770 7.289062500000000 73 74 64
1.929215869026224 -0.904087727387449 7.292968750000000 77 78 68
1.931282516984474 -0.867381620187009 7.300781250000000 80 81 70
1.933349164942724 -0.830594882489667 7.308593750000000 72 73 63
1.934382488921849 -0.793303740929541 7.312500000000000 63 56 44
1.935415812900974 -0.755972284120965 7.316406250000000 68 59 42
1.935415812900974 -0.718217053946507 7.316406250000000 67 59 41
1.935415812900974 -0.680461823772049 7.316406250000000 80 73 57
1.937482460859224 -0.643392879335549 7.324218750000000 118 118 109
1.938515784838349 -0.605920319157394 7.328125000000000 127 128 117
1.937482460859224 -0.567801788489731 7.324218750000000 134 136 124
1.937482460859224 -0.530006243066822 7.324218750000000 141 144 130
1.938515784838349 -0.492473210015990 7.328125000000000 145 149 135
1.937482460859224 -0.454415152221005 7.324218750000000 146 151 136
1.937482460859224 -0.416619606798096 7.324218750000000 150 153 138
1.936449136880099 -0.378622021875787 7.320312500000000 155 157 142
1.938515784838349 -0.341210397827452 7.328125000000000 159 162 146
1.939549108817473 -0.303556419031267 7.332031250000000 162 166 149
1.940582432796598 -0.265862124986630 7.335937500000000 162 166 149
1.939549108817473 -0.227884697688547 7.332031250000000 159 163 146
1.936449136880099 -0.189745082882370 7.320312500000000 155 158 141
1.936449136880099 -0.151969695083686 7.320312500000000 150 154 138
1.940582432796598 -0.114438051804288 7.335937500000000 145 150 135
1.937482460859224 -0.076459697991915 7.324218750000000 142 146 130
1.941615756775723 -0.038746636094487 7.339843750000000 137 141 126
1.933349164942724 -0.000866754117519 7.308593750000000 152 149 125
1.905449417506351 0.036316412897302 7.203125000000000 181 159 105
1.630585239059123 0.062886442281685 6.164062500000000 155 132 78
1.591318927852376 0.092414807919386 6.015625000000000 118 97 53
1.585118983977626 0.122976545788190 5.992187500000000 98 81 41
1.584085659998501 0.153798016486202 5.988281250000000 102 85 47
1.586152307956751 0.184940619400390 5.996093750000000 120 102 60
1.587185631935876 0.216023212699046 6.000000000000000 135 116 70
1.585118983977626 0.246663728036173 5.992187500000000 144 124 74
1.585118983977626 0.277585523598169 5.992187500000000 150 127 77
1.585118983977626 0.308507319160165 5.992187500000000 151 129 78
1.584085659998501 0.339207844112825 5.988281250000000 150 128 78
1.584085659998501 0.370109482050595 5.988281250000000 148 127 77
1.585118983977626 0.401272705846153 5.992187500000000 148 126 75
1.585118983977626 0.432194501408149 5.992187500000000 147 125 75
1.589252279894126 0.464323901395099 6.007812500000000 146 125 76
1.590285603873251 0.495648386184462 6.011718750000000 145 124 76
1.593385575810625 0.527697618931655 6.023437500000000 143 122 74
1.586152307956751 0.556244057635048 5.996093750000000 139 119 72
1.576852392144627 0.583743226393001 5.960937500000000 136 116 69
1.559285884499503 0.607658044095963 5.894531250000000 123 106 62
1.257555282595027 0.514604618387458 4.753906250000000 178 164 143
0.918108355452491 0.393609476763890 3.470703125000000 220 211 190
0.860758874611058 0.385814029335900 3.253906250000000 231 223 199
0.819425915446061 0.383272541345039 3.097656250000000 180 172 152
0.778609618270627 0.379370182090380 2.943359375000000 194 186 167
0.731593377220443 0.370733560685584 2.765625000000000 224 216 195
0.690777080045009 0.363525351057935 2.611328125000000 217 209 187
0.656160726744324 0.358108390443493 2.480468750000000 215 207 185
0.623094359412326 0.352217030774033 2.355468750000000 211 203 181
0.591061316059454 0.345639848623760 2.234375000000000 204 197 177
0.563161568623081 0.340310586146892 2.128906250000000 202 196 176
0.538878455113645 0.336148844475101 2.037109375000000 201 195 175
0.514853672598991 0.331205879050283 1.946289062500000 201 195 175
0.492637207047805 0.326524152040395 1.862304687500000 200 194 174
0.473262382439213 0.322914544563369 1.789062500000000 200 194 174
0.456212536783652 0.320180751411580 1.724609375000000 199 193 173
0.438904360133309 0.316595414450547 1.659179687500000 200 194 174
0.422371176467311 0.312908941925528 1.596679687500000 198 192 172
0.408162971754343 0.310345214622509 1.542968750000000 198 192 172
0.395763084004844 0.308637375649072 1.496093750000000 198 192 172
0.383621527250126 0.306652253528247 1.450195312500000 199 193 174
0.371996632484971 0.304616505718287 1.406250000000000 198 192 173
0.361663392693722 0.303210104593944 1.367187500000000 200 194 175
0.352363476881597 0.302287023193870 1.332031250000000 200 194 175
0.342805230074692 0.300774447099485 1.295898437500000 199 193 174
0.333505314262568 0.299120651821234 1.260742187500000 198 192 173
0.324722060440006 0.297577491847652 1.227539062500000 199 193 174
0.316713799601788 0.296416979291497 1.197265625000000 201 195 176
0.308705538763570 0.294944023559846 1.166992187500000 200 194 175
0.300955608920133 0.293410479141232 1.137695312500000 204 198 179
0.293722341066258 0.292088358148414 1.110351562500000 200 194 175
0.287005735201946 0.291007897017731 1.084960937500000 199 193 174
0.280547460332416 0.289932359478817 1.060546875000000 205 199 180
0.274347516457666 0.288876863749843 1.037109375000000 209 203 184
0.268405903577698 0.287856528048978 1.014648437500000 210 204 185
0.262851787189901 0.287027516056826 0.993652343750000 210 204 185
0.257297670802105 0.285981809604250 0.972656250000000 210 204 185
0.252001885409090 0.285011578428233 0.952636718750000 209 203 184
0.246835265513465 0.283983336175424 0.933105468750000 210 204 185
0.242314473104794 0.283509139053103 0.916015625000000 211 205 186
0.237793680696122 0.282858562718809 0.898925781250000 211 205 187
0.233531219282232 0.282343934533750 0.882812500000000 212 206 187
0.229397923365732 0.281821689332464 0.867187500000000 213 207 189
0.225393792946623 0.281299386224035 0.852050781250000 214 208 190
0.221518828024905 0.280784584317548 0.837402343750000 210 204 186
0.217643863103186 0.280118600229369 0.822753906250000 207 201 182
0.214027229176249 0.279638958350990 0.809082031250000 214 208 189
0.210668926244093 0.279360776900580 0.796386718750000 213 207 188
0.207181457814546 0.278777769290902 0.783203125000000 213 207 188
0.203952320379781 0.278411340327362 0.770996093750000 213 207 189
0.200723182945016 0.277918926212413 0.758789062500000 214 208 190
0.197623211007641 0.277481887656941 0.747070312500000 215 209 191
0.194523239070266 0.276923903356116 0.735351562500000 213 207 189
0.191552432630282 0.276431373426881 0.724121093750000 210 204 186
0.188710791687688 0.276011856978320 0.713378906250000 214 208 189
0.185869150745095 0.275481473596519 0.702636718750000 218 212 192
0.183285840797283 0.275228141733532 0.692871093750000 217 211 192
0.180702530849470 0.274874021749419 0.683105468750000 214 208 189
0.178119220901658 0.274419113644177 0.673339843750000 216 210 191
0.175535910953846 0.273863417417808 0.663574218750000 216 210 191
0.173210932000815 0.273615009146592 0.654785156250000 217 211 192
0.170885953047784 0.273275891566361 0.645996093750000 216 210 192
0.168690139592143 0.273055142121312 0.637695312500000 216 210 191
0.166365160639112 0.272537125626079 0.628906250000000 216 210 191
0.164298512680862 0.272356633522339 0.621093750000000 214 208 189
0.162231864722612 0.272095510921695 0.613281250000000 206 200 181
0.160294382261753 0.271972914080460 0.605957031250000 204 198 179
0.158356899800894 0.271774726148379 0.598632812500000 213 207 188
0.156419417340035 0.271500947125452 0.591308593750000 214 208 189
0.154611100376566 0.271378292377073 0.584472656250000 216 210 191
0.152802783413097 0.271185085943905 0.577636718750000 218 212 193
0.151123631947019 0.271153082597399 0.571289062500000 217 211 192
0.149444480480941 0.271055566972159 0.564941406250000 219 213 194
0.147894494512254 0.271129333245694 0.559082031250000 218 212 193
0.146344508543567 0.271142626646552 0.553222656250000 217 211 192
0.144794522574879 0.271095447174733 0.547363281250000 212 206 187
0.143244536606192 0.270987794830237 0.541503906250000 211 205 186
0.141694550637505 0.270819669613065 0.535644531250000 207 201 182
0.140144564668817 0.270591071523216 0.529785156250000 210 203 184
0.138723744197520 0.270553912956367 0.524414062500000 213 205 187
0.137173758228833 0.270206888824193 0.518554687500000 210 203 185
0.136269599747099 0.271084150828006 0.515136718750000 215 207 189
0.134848779275802 0.270888250970381 0.509765625000000 212 205 188
0.133815455296677 0.271422891269503 0.505859375000000 211 204 186
1.649752190846837 -2.747040500425998 6.117187500000000 233 230 222
1.653966117260239 -2.722409736650953 6.132812500000000 247 245 241
1.650805672450188 -2.685620682667888 6.121093750000000 255 255 254
1.657126562070290 -2.664195907658994 6.144531250000000 255 255 255
1.657126562070290 -2.632487964752201 6.144531250000000 254 254 254
1.660287006880342 -2.605740187176329 6.156250000000000 255 255 255
1.661340488483692 -2.575605002216274 6.160156250000000 255 255 255
1.663447451690393 -2.547042575202957 6.167968750000000 255 255 255
1.666607896500445 -2.519992433263701 6.179687500000000 248 246 242
1.668714859707146 -2.491248587632353 6.187500000000000 232 228 220
1.671875304517197 -2.463976711826616 6.199218750000000 222 216 207
1.675035749327249 -2.436583890275525 6.210937500000000 215 208 201
1.678196194137300 -2.409070122979081 6.222656250000000 206 201 194
1.682410120550702 -2.382927537387120 6.238281250000000 196 189 182
1.687677528567454 -2.358095660626963 6.257812500000000 183 176 170
1.693998418187557 -2.334514019825936 6.281250000000000 199 192 184
1.702426271014361 -2.313553796688518 6.312500000000000 205 198 189
1.709800642237814 -2.290859554610560 6.339843750000000 162 158 151
1.721388939874669 -2.273448463108274 6.382812500000000 113 110 105
1.726656347891421 -2.247366813646133 6.402343750000000 116 113 107
1.730870274304823 -2.219732563861481 6.417968750000000 115 112 106
1.734030719114875 -2.190606186626992 6.429687500000000 110 107 101
1.737191163924926 -2.161358863647151 6.441406250000000 119 116 109
1.740351608734978 -2.131990594921956 6.453125000000000 131 128 121
1.743512053545029 -2.102501380451408 6.464843750000000 127 124 117
1.746672498355081 -2.072891220235507 6.476562500000000 125 122 115
1.748779461561781 -2.041930035939350 6.484375000000000 123 120 113
1.751939906371833 -2.012098141856967 6.496093750000000 121 119 111
1.755100351181884 -1.982145302029231 6.507812500000000 120 118 109
1.758260795991936 -1.952071516456142 6.519531250000000 119 117 108
1.761421240801987 -1.921876785137700 6.531250000000000 119 117 108
1.763528204008688 -1.890431817860129 6.539062500000000 119 117 108
1.765635167215389 -1.858906220085656 6.546875000000000 118 116 107
1.767742130422090 -1.827299991814280 6.554687500000000 118 116 107
1.770902575232141 -1.796681950387101 6.566406250000000 118 116 107
1.774063020042193 -1.765942963214569 6.578125000000000 119 117 108
1.778276946455595 -1.736111532389331 6.593750000000000 120 118 109
1.783544354472347 -1.707127185038712 6.613281250000000 120 118 109
1.785651317679048 -1.674976700913246 6.621093750000000 121 119 110
1.791972207299151 -1.646617703170763 6.644531250000000 121 119 110
1.798293096919254 -1.618016813937573 6.667968750000000 121 119 111
1.813041839366160 -1.596595744985836 6.722656250000000 105 102 95
1.839378879449922 -1.584593382376022 6.820312500000000 111 108 100
1.882571625187291 -1.585781518124032 6.980468750000000 131 128 119
1.908908665271053 -1.571440871104054 7.078125000000000 132 129 120
1.921550444511259 -1.545080257702768 7.125000000000000 133 131 122
1.926817852528011 -1.512447380367322 7.144531250000000 134 132 123
1.931031778941413 -1.478806158563456 7.160156250000000 136 134 124
1.935245705354815 -1.445003675765784 7.175781250000000 138 135 124
1.938406150164866 -1.410273478996593 7.187500000000000 141 138 126
1.942620076578268 -1.376168631835538 7.203125000000000 133 130 119
1.944727039784969 -1.340450248222150 7.210937500000000 112 110 100
1.946834002991670 -1.304651234111860 7.218750000000000 70 69 59
1.948940966198371 -1.268771589504668 7.226562500000000 92 91 79
1.951047929405072 -1.232811314400573 7.234375000000000 93 92 79
1.952101411008422 -1.196124901567214 7.238281250000000 92 91 78
1.953154892611773 -1.159398173485404 7.242187500000000 88 87 75
1.954208374215123 -1.122631130155143 7.246093750000000 81 80 69
1.956315337421824 -1.086408805936116 7.253906250000000 77 76 66
1.957368819025174 -1.049540974484727 7.257812500000000 75 74 64
1.959475782231875 -1.013177546896121 7.265625000000000 73 73 62
1.961582745438576 -0.976733488810614 7.273437500000000 75 74 64
1.964743190248628 -0.940713204090987 7.285156250000000 76 77 67
1.965796671851978 -0.903603481148891 7.289062500000000 78 79 69
1.967903635058679 -0.866917531572677 7.296875000000000 80 81 71
1.970010598265380 -0.830150951499560 7.304687500000000 73 74 64
1.972117561472081 -0.793303740929541 7.312500000000000 63 56 44
1.973171043075431 -0.755972284120965 7.316406250000000 67 58 41
1.973171043075431 -0.718217053946507 7.316406250000000 69 62 43
1.974224524678782 -0.680825124265254 7.320312500000000 82 76 60
1.976331487885483 -0.643736022204528 7.328125000000000 116 117 107
1.977384969488833 -0.606243304402147 7.332031250000000 128 129 118
1.977384969488833 -0.568407443730787 7.332031250000000 137 139 126
1.977384969488833 -0.530571583059427 7.332031250000000 143 147 132
1.977384969488833 -0.492735722388067 7.332031250000000 146 150 135
1.976331487885483 -0.454657506968856 7.328125000000000 148 151 136
1.975278006282132 -0.416619606798096 7.324218750000000 153 155 140
1.975278006282132 -0.378824061375187 7.324218750000000 160 161 147
1.976331487885483 -0.341210397827452 7.328125000000000 166 168 152
1.978438451092184 -0.303718143282216 7.335937500000000 168 172 155
1.978438451092184 -0.265862124986630 7.335937500000000 167 172 154
1.978438451092184 -0.228006106691045 7.335937500000000 164 168 151
1.975278006282132 -0.189846334260642 7.324218750000000 159 163 147
1.974224524678782 -0.151969695083686 7.320312500000000 154 158 143
1.978438451092184 -0.114438051804288 7.335937500000000 149 153 138
1.976331487885483 -0.076500476497511 7.328125000000000 144 147 131
1.981598895902235 -0.038787877857227 7.347656250000000 140 142 126
1.975278006282132 -0.000868607146097 7.324218750000000 170 163 136
1.953154892611773 0.036513356568111 7.242187500000000 194 170 110
1.676089230930599 0.063404518168669 6.214843750000000 198 172 105
1.621308187556374 0.092354798303854 6.011718750000000 195 169 104
1.616040779539622 0.122976545788190 5.992187500000000 177 154 95
1.614987297936272 0.153798016486202 5.988281250000000 141 122 72
1.617094261142973 0.184940619400390 5.996093750000000 88 72 36
1.618147742746323 0.216023212699046 6.000000000000000 94 79 44
1.617094261142973 0.246824525772833 5.996093750000000 102 85 47
1.617094261142973 0.277766478959055 5.996093750000000 112 94 55
1.617094261142973 0.308708432145276 5.996093750000000 127 108 63
1.616040779539622 0.339429114722161 5.992187500000000 137 117 70
1.617094261142973 0.370592338517719 5.996093750000000 141 120 73
1.616040779539622 0.401272705846153 5.992187500000000 142 121 72
1.618147742746323 0.432757988372175 6.000000000000000 144 122 72
1.621308187556374 0.464625802501338 6.011718750000000 143 122 72
1.622361669159725 0.495970444914926 6.015625000000000 142 121 72
1.622361669159725 0.527013186222275 6.015625000000000 141 120 71
1.612880334729571 0.554794561719386 5.980468750000000 138 117 70
1.609719889919519 0.584508289599283 5.968750000000000 135 115 68
1.588650257852510 0.607255354868596 5.890625000000000 119 101 60
1.266284887227266 0.508261915613578 4.695312500000000 175 162 142
0.935491663775218 0.393387974525981 3.468750000000000 220 211 190
0.874389730780891 0.384424543035771 3.242187500000000 232 224 201
0.832777207448547 0.382064242034367 3.087890625000000 171 162 144
0.792218165719554 0.378614966067639 2.937500000000000 178 169 151
0.744284752767108 0.369948108226505 2.759765625000000 225 217 196
0.702145488633089 0.362437765864045 2.603515625000000 217 209 187
0.667380595722523 0.357262465111736 2.474609375000000 214 206 184
0.634195925216983 0.351632922928637 2.351562500000000 211 203 181
0.602591477116469 0.345639848623760 2.234375000000000 204 198 177
0.574147473826007 0.340310586146892 2.128906250000000 203 197 177
0.549390656147270 0.336148844475101 2.037109375000000 202 196 176
0.525160579270210 0.331372063635858 1.947265625000000 201 195 175
0.501983983996499 0.326352928048764 1.861328125000000 200 194 174
0.482494574334516 0.322914544563369 1.789062500000000 201 195 175
0.465112127879233 0.320180751411580 1.724609375000000 198 192 172
0.447202940622275 0.316409072240747 1.658203125000000 198 192 172
0.430347234968667 0.312717560309672 1.595703125000000 199 193 173
0.415861862922598 0.310148793600596 1.541992187500000 199 193 173
0.403220083682393 0.308435915221102 1.495117187500000 197 191 171
0.390841674843025 0.306445753694222 1.449218750000000 200 194 175
0.379253377206169 0.304616505718287 1.406250000000000 198 192 173
0.368718561172665 0.303210104593944 1.367187500000000 198 192 173
0.358973856341673 0.302065405141675 1.331054687500000 199 193 174
0.349492521911519 0.300774447099485 1.295898437500000 198 192 173
0.340011187481364 0.299120651821234 1.260742187500000 199 193 174
0.331056593852885 0.297577491847652 1.227539062500000 199 193 174
0.322892111426919 0.296416979291497 1.197265625000000 200 194 175
0.314464258600116 0.294697208477369 1.166015625000000 199 193 174
0.306826516975825 0.293410479141232 1.137695312500000 205 199 180
0.299452145752371 0.292088358148414 1.110351562500000 202 196 177
0.292604515330593 0.291007897017731 1.084960937500000 201 195 176
0.286020255309653 0.289932359478817 1.060546875000000 206 200 181
0.279699365689550 0.288876863749843 1.037109375000000 210 204 185
0.273378476069447 0.287579476530163 1.013671875000000 209 203 184
0.267847697651857 0.286886470594390 0.993164062500000 207 201 182
0.262185234033848 0.285838244438786 0.972167968750000 211 205 186
0.256786140816677 0.284865493559741 0.952148437500000 208 202 183
0.251650418000344 0.283983336175424 0.933105468750000 209 203 184
0.246909750785267 0.283358014778555 0.915527343750000 212 206 187
0.242300768770608 0.282704918741232 0.898437500000000 212 206 187
0.238086842357206 0.282343934533750 0.882812500000000 213 207 188
0.233609545542967 0.281504322565198 0.866210937500000 213 207 189
0.229658989530403 0.281138183137374 0.851562500000000 213 207 188
0.225576748317420 0.280457138738169 0.836425781250000 213 207 189
0.221757877505274 0.279952357736651 0.822265625000000 213 207 188
0.218070691893547 0.279470196155244 0.808593750000000 213 207 188
0.214646876682658 0.279189495001806 0.795898437500000 213 207 188
0.211223061471769 0.278777769290902 0.783203125000000 215 209 191
0.207930931461299 0.278411340327362 0.770996093750000 212 206 187
0.204507116250410 0.277740085204555 0.758300781250000 213 207 189
0.201346671440359 0.277300526946054 0.746582031250000 215 209 190
0.198317911830726 0.276923903356116 0.735351562500000 214 208 189
0.195289152221093 0.276431373426881 0.724121093750000 208 202 183
0.192260392611461 0.275822937158348 0.712890625000000 213 207 189
0.189495003402666 0.275481473596519 0.702636718750000 213 207 188
0.186729614193871 0.275034182507505 0.692382812500000 210 204 185
0.184095910185495 0.274677542820362 0.682617187500000 214 208 190
0.181462206177119 0.274220115012093 0.672851562500000 216 210 192
0.178960187369161 0.273863417417808 0.663574218750000 215 209 191
0.176458168561204 0.273410971108451 0.654296875000000 215 209 191
0.174219520154084 0.273275891566361 0.645996093750000 216 210 191
0.171849186546546 0.272846064677115 0.637207031250000 215 209 190
0.169610538139426 0.272537125626079 0.628906250000000 219 213 194
0.167503574932725 0.272356633522339 0.621093750000000 218 212 193
0.165396611726024 0.272095510921695 0.613281250000000 210 204 185
0.163289648519323 0.271753757824150 0.605468750000000 212 206 187
0.161446055713460 0.271774726148379 0.598632812500000 215 209 190
0.159470777707177 0.271500947125452 0.591308593750000 214 208 189
0.157627184901314 0.271378292377073 0.584472656250000 215 209 190
0.155783592095451 0.271185085943905 0.577636718750000 215 209 190
0.154071684490006 0.271153082597399 0.571289062500000 216 210 191
0.152359776884562 0.271055566972159 0.564941406250000 219 213 194
0.150647869279117 0.270892539068187 0.558593750000000 217 211 192
0.149067646874092 0.270903312766016 0.552734375000000 214 208 189
0.147619109669485 0.271095447174733 0.547363281250000 212 206 188
0.146038887264459 0.270987794830237 0.541503906250000 212 206 187
0.144458664859433 0.270819669613065 0.535644531250000 211 205 186
0.143010127654826 0.270840464215865 0.530273437500000 210 203 184
0.141429905249801 0.270553912956367 0.524414062500000 212 202 184
0.139849682844775 0.270206888824193 0.518554687500000 210 201 184
0.138796201241425 0.270827199026274 0.514648437500000 193 185 169
0.137479349237236 0.270888250970381 0.509765625000000 210 202 185
0.136294182433467 0.271160900061714 0.505371093750000 213 204 188
1.679171751928899 -2.743532147296463 6.109375000000000 252 251 249
1.683466308839203 -2.718941698769869 6.125000000000000 255 255 255
1.679171751928899 -2.680479098718938 6.109375000000000 255 255 255
1.685613587294355 -2.659114796582721 6.132812500000000 254 254 254
1.685613587294355 -2.627467326548606 6.132812500000000 254 254 254
1.689908144204659 -2.602433410289049 6.148437500000000 255 255 255
1.690981783432235 -2.572338540577445 6.152343750000000 254 254 253
1.693129061887387 -2.543816428812579 6.160156250000000 244 242 238
1.696349979570115 -2.516806602121774 6.171875000000000 230 225 217
1.698497258025267 -2.488103071738878 6.179687500000000 221 216 206
1.701718175707995 -2.460871511181592 6.191406250000000 213 207 199
1.704939093390723 -2.433519004878952 6.203125000000000 208 201 194
1.708160011073451 -2.406045552830959 6.214843750000000 202 196 189
1.712454567983756 -2.379943282487449 6.230468750000000 191 185 179
1.717822764121635 -2.355151720975743 6.250000000000000 181 175 168
1.724264599487091 -2.331610395423167 6.273437500000000 197 190 182
1.732853713307700 -2.310690487534201 6.304687500000000 204 197 189
1.741442827128308 -2.289448057657627 6.335937500000000 158 154 148
1.752179219404068 -2.270665784450858 6.375000000000000 112 109 104
1.758621054769524 -2.245995631941651 6.398437500000000 116 113 108
1.761841972452252 -2.217030515700968 6.410156250000000 114 111 105
1.765062890134980 -2.187944453714930 6.421875000000000 109 106 100
1.768283807817708 -2.158737445983540 6.433593750000000 117 114 108
1.772578364728012 -2.130700043714377 6.449218750000000 130 127 120
1.775799282410741 -2.101230986868054 6.460937500000000 127 124 117
1.779020200093469 -2.071640984276378 6.472656250000000 125 122 115
1.782241117776197 -2.041930035939350 6.484375000000000 123 121 113
1.785462035458925 -2.012098141856967 6.496093750000000 121 120 111
1.788682953141653 -1.982145302029231 6.507812500000000 120 118 110
1.791903870824381 -1.952071516456142 6.519531250000000 119 117 109
1.795124788507109 -1.921876785137700 6.531250000000000 120 117 108
1.798345706189837 -1.891561108073904 6.542968750000000 120 117 108
1.800492984644989 -1.860015352675205 6.550781250000000 118 116 107
1.802640263100141 -1.828388966779604 6.558593750000000 118 116 107
1.805861180782869 -1.797750767728200 6.570312500000000 119 117 108
1.809082098465597 -1.766991622931442 6.582031250000000 120 118 109
1.813376655375901 -1.737140034481979 6.597656250000000 121 119 110
1.818744851513782 -1.708135529507134 6.617187500000000 120 118 109
1.820892129968934 -1.675964887757443 6.625000000000000 120 118 109
1.827333965334390 -1.647585732390734 6.648437500000000 122 120 111
1.833775800699846 -1.618964685533318 6.671875000000000 119 117 109
1.848806749885910 -1.597523458957356 6.726562500000000 101 98 91
1.875647730575311 -1.585500938723316 6.824218750000000 119 117 109
1.921814217361080 -1.588443714293238 6.992187500000000 131 128 119
1.945434280367752 -1.571440871104054 7.078125000000000 132 130 121
1.957244311871088 -1.544233174228150 7.121093750000000 133 131 122
1.960465229553817 -1.509966602816146 7.132812500000000 134 132 123
1.965833425691697 -1.477192622111122 7.152343750000000 136 134 125
1.971201621829577 -1.444217065163843 7.171875000000000 137 135 125
1.975496178739881 -1.410273478996593 7.187500000000000 140 137 128
1.977643457195033 -1.374676041128558 7.195312500000000 132 130 120
1.980864374877761 -1.339724110492886 7.207031250000000 113 110 101
1.983011653332913 -1.303945254006821 7.214843750000000 70 69 59
1.985158931788065 -1.268085767023854 7.222656250000000 92 91 79
1.987306210243217 -1.232145649543985 7.230468750000000 93 92 80
1.988379849470793 -1.195479394334852 7.234375000000000 91 90 76
1.989453488698369 -1.158772823877267 7.238281250000000 88 86 74
1.991600767153521 -1.122631130155143 7.246093750000000 80 79 69
1.993748045608673 -1.086408805936116 7.253906250000000 77 76 66
1.994821684836249 -1.049540974484727 7.257812500000000 76 75 64
1.996968963291401 -1.013177546896121 7.265625000000000 74 74 63
1.999116241746553 -0.976733488810614 7.273437500000000 76 76 66
2.001263520201705 -0.940208800228204 7.281250000000000 77 78 68
2.003410798656857 -0.903603481148891 7.289062500000000 79 80 70
2.005558077112009 -0.866917531572677 7.296875000000000 81 82 72
2.006631716339585 -0.829707020509454 7.300781250000000 74 74 64
2.007705355567161 -0.792456194197779 7.304687500000000 60 55 43
2.009852634022313 -0.755568668379309 7.312500000000000 65 57 41
2.009852634022313 -0.717833595829077 7.312500000000000 71 64 46
2.010926273249889 -0.680461823772049 7.316406250000000 81 75 60
2.013073551705042 -0.643392879335549 7.324218750000000 106 107 97
2.013073551705042 -0.605597333912640 7.324218750000000 124 125 115
2.014147190932618 -0.568104616110259 7.328125000000000 136 137 126
2.014147190932618 -0.530288913063125 7.328125000000000 142 144 130
2.014147190932618 -0.492473210015990 7.328125000000000 146 148 134
2.014147190932618 -0.454657506968856 7.328125000000000 148 152 137
2.013073551705042 -0.416619606798096 7.324218750000000 156 158 143
2.014147190932618 -0.379026100874587 7.328125000000000 164 165 150
2.015220830160193 -0.341392279702627 7.332031250000000 171 172 156
2.016294469387769 -0.303718143282216 7.335937500000000 172 175 158
2.016294469387769 -0.265862124986630 7.335937500000000 172 174 158
2.016294469387769 -0.228006106691045 7.335937500000000 166 170 153
2.013073551705042 -0.189846334260642 7.324218750000000 162 165 149
2.011999912477465 -0.151969695083686 7.320312500000000 157 160 145
2.017368108615345 -0.114498987934109 7.339843750000000 151 155 139
2.013073551705042 -0.076459697991915 7.324218750000000 145 149 133
2.020589026298074 -0.038808498738597 7.351562500000000 141 143 128
2.013073551705042 -0.000868607146097 7.324218750000000 176 168 145
1.993748045608673 0.036572439669354 7.253906250000000 190 167 111
1.697423618797691 0.063005998255604 6.175781250000000 192 166 99
1.655551688922226 0.092534827150450 6.023437500000000 191 165 99
1.646962575101618 0.122976545788190 5.992187500000000 193 167 100
1.645888935874042 0.153798016486202 5.988281250000000 185 160 100
1.648036214329194 0.184940619400390 5.996093750000000 94 77 42
1.649109853556770 0.216023212699046 6.000000000000000 94 77 43
1.650183492784346 0.247146121246153 6.003906250000000 99 82 47
1.650183492784346 0.278128389680825 6.003906250000000 104 87 51
1.650183492784346 0.309110658115498 6.003906250000000 117 100 59
1.650183492784346 0.340092926550170 6.003906250000000 128 109 63
1.653404410467074 0.371799479685529 6.015625000000000 135 114 67
1.652330771239498 0.402580635135091 6.011718750000000 134 114 69
1.652330771239498 0.433603218818214 6.011718750000000 127 109 66
1.654478049694650 0.465229604713815 6.019531250000000 128 109 66
1.656625328149802 0.496936621106319 6.027343750000000 128 109 65
1.656625328149802 0.528039835286344 6.027343750000000 127 108 65
1.648036214329194 0.556244057635048 5.996093750000000 119 101 59
1.638373461281010 0.583743226393001 5.960937500000000 124 106 62
1.623342512094945 0.608866111778062 5.906250000000000 119 100 61
1.278704320043042 0.503610600246066 4.652343750000000 177 163 143
0.951244355632356 0.392501965574346 3.460937500000000 220 211 188
0.888436460819158 0.383266637785663 3.232421875000000 231 223 200
0.847638170171270 0.381580922310098 3.083984375000000 188 179 161
0.806303059909593 0.378111488719145 2.933593750000000 175 167 148
0.756915655441096 0.369162655767425 2.753906250000000 225 217 196
0.713970086338055 0.361622076968627 2.597656250000000 218 210 187
0.678539991828046 0.356416539779980 2.468750000000000 214 206 184
0.645257175773189 0.351048815083240 2.347656250000000 211 203 181
0.613584818559697 0.345337715888949 2.232421875000000 205 198 176
0.585670198642720 0.340622797693816 2.130859375000000 201 195 175
0.560439676794684 0.336471134834138 2.039062500000000 202 196 176
0.534940745139753 0.331205879050283 1.946289062500000 201 195 175
0.511589091939975 0.326352928048764 1.861328125000000 200 194 174
0.491726766229818 0.322914544563369 1.789062500000000 201 195 175
0.473743309167920 0.319999448607836 1.723632812500000 198 192 172
0.455759852106021 0.316409072240747 1.658203125000000 196 190 170
0.438581624464805 0.312717560309672 1.595703125000000 198 192 172
0.423550675278741 0.309952372578683 1.541015625000000 195 189 170
0.410935414354722 0.308435915221102 1.495117187500000 197 191 172
0.398320153430704 0.306445753694222 1.449218750000000 201 195 176
0.386241712120474 0.304404966478205 1.405273437500000 198 192 173
0.375773729651608 0.303210104593944 1.367187500000000 199 193 174
0.366110976603424 0.302287023193870 1.332031250000000 201 195 176
0.356179813748345 0.300774447099485 1.295898437500000 198 192 173
0.346517060700161 0.299120651821234 1.260742187500000 200 194 175
0.337391127265765 0.297577491847652 1.227539062500000 200 194 175
0.328802013445157 0.296175203615077 1.196289062500000 198 192 173
0.320481309431443 0.294697208477369 1.166015625000000 200 194 175
0.312429015224622 0.293158624652699 1.136718750000000 205 199 180
0.304913540631590 0.291831464253825 1.109375000000000 201 195 176
0.298203295459240 0.291007897017731 1.084960937500000 199 193 174
0.291493050286890 0.289932359478817 1.060546875000000 205 199 180
0.285051214921434 0.288876863749843 1.037109375000000 208 202 183
0.278609379555978 0.287579476530163 1.013671875000000 208 202 183
0.272838568707757 0.286745425131955 0.992675781250000 209 203 184
0.267067757859536 0.285694679273322 0.971679687500000 211 205 186
0.261565356818208 0.284719408691249 0.951660156250000 207 201 182
0.256331365583775 0.283834731603904 0.932617187500000 210 204 185
0.251634193963130 0.283358014778555 0.915527343750000 213 207 188
0.246802817439038 0.282551274763655 0.897949218750000 212 206 187
0.242374055625287 0.282031607172540 0.881835937500000 212 206 187
0.237945293811536 0.281345639181565 0.865722656250000 213 207 189
0.233919146708126 0.280976980050713 0.851074218750000 212 206 187
0.229758794701269 0.280293415948479 0.835937500000000 214 208 189
0.225866852501306 0.279786115243933 0.821777343750000 213 207 189
0.222109115204790 0.279301433959498 0.808105468750000 213 207 189
0.218619787715167 0.279018213103032 0.795410156250000 213 207 188
0.215130460225545 0.278603967689100 0.782714843750000 212 206 188
0.211775337639370 0.278235019022532 0.770507812500000 212 206 188
0.208286010149748 0.277561244196696 0.757812500000000 216 210 191
0.205199297370467 0.277300526946054 0.746582031250000 216 210 191
0.201978379687739 0.276740022942201 0.734863281250000 213 207 188
0.198891666908458 0.276244973309937 0.723632812500000 214 208 190
0.195804954129177 0.275634017338377 0.712402343750000 209 203 184
0.192986651156790 0.275290034073519 0.702148437500000 210 204 185
0.190302553087850 0.275034182507505 0.692382812500000 212 206 188
0.187618455018910 0.274677542820362 0.682617187500000 211 205 187
0.184800152046523 0.274021116380008 0.672363281250000 217 211 192
0.182384463784477 0.273863417417808 0.663574218750000 215 209 190
0.179834570618984 0.273410971108451 0.654296875000000 215 209 191
0.177418882356938 0.273069333825192 0.645507812500000 217 211 192
0.175003194094892 0.272636987232918 0.636718750000000 215 209 190
0.172855915639740 0.272537125626079 0.628906250000000 216 210 191
0.170574432281141 0.272142516672085 0.620605468750000 210 204 185
0.168561358729435 0.272095510921695 0.613281250000000 220 214 195
0.166414080274283 0.271753757824150 0.605468750000000 215 209 191
0.164401006722578 0.271553050189041 0.598144531250000 217 211 192
0.162387933170873 0.271276751463086 0.590820312500000 214 208 189
0.160509064522615 0.271151577011679 0.583984375000000 213 207 188
0.158764400777804 0.271185085943905 0.577636718750000 212 206 187
0.156885532129546 0.270921327825948 0.570800781250000 214 208 189
0.155140868384735 0.270821292497680 0.564453125000000 215 209 190
0.153530409543371 0.270892539068187 0.558593750000000 217 211 192
0.151919950702007 0.270903312766016 0.552734375000000 214 208 189
0.150443696764090 0.271095447174733 0.547363281250000 210 204 185
0.148833237922726 0.270987794830237 0.541503906250000 212 206 187
0.147356983984809 0.271066542602685 0.536132812500000 215 209 191
0.145746525143445 0.270840464215865 0.530273437500000 207 200 182
0.144270271205528 0.270805825352044 0.524902343750000 207 198 179
0.142525607460717 0.270206888824193 0.518554687500000 211 201 184
0.141451968233141 0.270827199026274 0.514648437500000 183 174 159
0.139975714295224 0.270628779465620 0.509277343750000 209 199 181
0.138633665260754 0.270636917646136 0.504394531250000 206 196 179
1.707416885662256 -2.738269617602160 6.097656250000000 255 255 255
1.711792073069463 -2.713739641948242 6.113281250000000 255 255 255
1.708510682514058 -2.677051376086306 6.101562500000000 255 255 255
1.713979666773066 -2.654033685506449 6.121093750000000 255 255 255
1.715073463624867 -2.624120234412875 6.125000000000000 255 255 255
1.718354854180272 -2.597473244958130 6.136718750000000 252 252 251
1.719448651032074 -2.567438848119203 6.140625000000000 240 237 231
