ply
format ascii 1.0
element vertex 719
property double x
property double y
property double z
property uchar red
property uchar green
property uchar blue
end_header
0.281174469186514 0.088294708627107 1.316406250000000 149 145 129
0.281174469186514 0.095099102576754 1.316406250000000 149 144 129
0.280965882785040 0.101827900460729 1.315429687500000 149 144 129
0.280965882785040 0.108627246640383 1.315429687500000 149 144 129
0.280965882785040 0.115426592820038 1.315429687500000 149 144 129
0.280757296383566 0.122135199624043 1.314453125000000 149 144 129
0.280757296383566 0.128929498033706 1.314453125000000 148 143 128
0.280757296383566 0.135723796443368 1.314453125000000 148 143 128
0.280757296383566 0.142518094853031 1.314453125000000 148 143 128
0.280548709982093 0.149201462807075 1.313476562500000 148 143 128
0.280548709982093 0.155990713446745 1.313476562500000 148 143 128
0.280340123580619 0.162658938090812 1.312500000000000 149 144 129
0.280340123580619 0.169443140960489 1.312500000000000 147 142 127
0.280340123580619 0.176227343830167 1.312500000000000 147 142 127
0.280131537179145 0.182875377394265 1.311523437500000 147 142 127
0.280131537179145 0.189654532493950 1.311523437500000 148 143 128
0.280131537179145 0.196433687593636 1.311523437500000 147 142 127
0.280131537179145 0.203212842693321 1.311523437500000 146 141 126
0.280131537179145 0.209991997793007 1.311523437500000 147 142 127
0.280131537179145 0.216771152892692 1.311523437500000 148 143 128
0.279922950777672 0.223383852066844 1.310546875000000 148 143 128
0.279922950777672 0.230157959396537 1.310546875000000 147 142 127
0.279922950777672 0.236932066726230 1.310546875000000 147 142 127
0.279922950777672 0.243706174055923 1.310546875000000 147 142 127
0.279922950777672 0.250480281385616 1.310546875000000 147 142 127
0.279714364376198 0.257062693939814 1.309570312500000 147 142 127
0.279714364376198 0.263831753499514 1.309570312500000 146 141 126
0.279714364376198 0.270600813059215 1.309570312500000 146 141 126
0.279714364376198 0.277369872618916 1.309570312500000 146 141 126
0.279714364376198 0.284138932178617 1.309570312500000 146 141 126
0.279714364376198 0.290907991738318 1.309570312500000 146 141 126
0.279714364376198 0.297677051298019 1.309570312500000 146 141 126
0.279714364376198 0.304446110857719 1.309570312500000 146 141 126
0.279714364376198 0.311215170417420 1.309570312500000 146 141 126
0.279505777974724 0.317747105271695 1.308593750000000 146 141 126
0.279505777974724 0.324511117061403 1.308593750000000 146 141 126
0.279714364376198 0.331522349096523 1.309570312500000 145 140 125
0.279505777974724 0.338039140640820 1.308593750000000 145 140 125
0.279714364376198 0.345060468215925 1.309570312500000 144 140 125
0.279714364376198 0.351829527775625 1.309570312500000 142 141 125
0.279505777974724 0.358331176009946 1.308593750000000 143 141 125
0.279505777974724 0.365095187799654 1.308593750000000 145 140 125
0.279505777974724 0.371859199589363 1.308593750000000 144 140 124
0.279505777974724 0.378623211379071 1.308593750000000 143 140 124
0.279505777974724 0.385387223168780 1.308593750000000 142 140 124
0.279505777974724 0.392151234958488 1.308593750000000 144 139 124
0.279297191573251 0.398617548802862 1.307617187500000 144 139 124
0.279297191573251 0.405376512822579 1.307617187500000 142 139 123
0.279297191573251 0.412135476842295 1.307617187500000 141 139 123
0.279297191573251 0.418894440862011 1.307617187500000 141 139 123
0.279297191573251 0.425653404881727 1.307617187500000 142 138 123
0.279297191573251 0.432412368901443 1.307617187500000 143 138 123
0.279297191573251 0.439171332921160 1.307617187500000 143 138 123
0.279297191573251 0.445930296940876 1.307617187500000 143 138 123
0.279088605171777 0.452351180855319 1.306640625000000 142 137 122
0.279297191573251 0.459448224980308 1.307617187500000 142 137 122
0.279088605171777 0.465859013354767 1.306640625000000 142 137 122
0.279088605171777 0.472612929604491 1.306640625000000 142 137 122
0.279088605171777 0.479366845854215 1.306640625000000 142 137 122
0.279088605171777 0.486120762103939 1.306640625000000 141 136 121
0.279088605171777 0.492874678353662 1.306640625000000 142 137 122
0.278880018770303 0.499255180108167 1.305664062500000 141 136 121
0.278880018770303 0.506004048587899 1.305664062500000 141 136 121
0.278880018770303 0.512752917067630 1.305664062500000 141 136 121
0.278671432368830 0.519113227742166 1.304687500000000 141 136 121
0.278671432368830 0.525857048451905 1.304687500000000 140 135 120
0.278671432368830 0.532600869161644 1.304687500000000 140 135 120
0.278671432368830 0.539344689871383 1.304687500000000 140 135 120
0.278671432368830 0.546088510581122 1.304687500000000 139 134 119
0.278671432368830 0.552832331290862 1.304687500000000 139 134 119
0.278671432368830 0.559576152000601 1.304687500000000 139 134 119
0.278462845967356 0.565896080515198 1.303710937500000 140 135 120
0.278462845967356 0.572634853454945 1.303710937500000 139 134 119
0.278254259565882 0.578939638659565 1.302734375000000 139 134 119
0.278254259565882 0.585673363829319 1.302734375000000 138 133 118
0.278254259565882 0.592407088999074 1.302734375000000 138 133 118
0.278045673164409 0.598691683123724 1.301757812500000 137 132 119
0.278045673164409 0.605420360523487 1.301757812500000 137 132 119
0.277837086762935 0.611689811338160 1.300781250000000 137 132 119
0.277837086762935 0.618413440967930 1.300781250000000 137 132 118
0.277837086762935 0.625137070597700 1.300781250000000 137 132 117
0.277628500361461 0.631386330332404 1.299804687500000 136 131 116
0.277628500361461 0.638104912192182 1.299804687500000 136 131 116
0.277419913959988 0.644339028616909 1.298828125000000 136 131 116
0.277419913959988 0.651052562706695 1.298828125000000 136 131 117
0.277002741157040 0.656776974846410 1.296875000000000 135 129 117
0.277002741157040 0.663480413396211 1.296875000000000 136 129 117
0.276585568354093 0.669174538915972 1.294921875000000 135 128 116
0.276168395551146 0.674848473355765 1.292968750000000 135 128 116
0.276794154755567 0.683075976990609 1.295898437500000 134 127 115
0.276376981952619 0.688734768120424 1.293945312500000 134 127 115
0.275751222748198 0.693848520575281 1.291015625000000 134 127 115
0.290115204850821 -0.596537451073044 1.326171875000000 145 139 129
0.290115204850821 -0.589682579423474 1.326171875000000 145 140 130
0.290115204850821 -0.582827707773903 1.326171875000000 145 140 129
0.289687936507889 -0.575124569797199 1.324218750000000 147 142 131
0.289474302336423 -0.567860708294038 1.323242187500000 146 141 130
0.289901570679355 -0.561849055201610 1.325195312500000 147 142 131
0.289901570679355 -0.554999231322032 1.325195312500000 147 142 132
0.290115204850821 -0.548553349526052 1.326171875000000 147 142 131
0.290115204850821 -0.541698477876482 1.326171875000000 148 143 132
0.290115204850821 -0.534843606226911 1.326171875000000 148 143 132
0.290328839022287 -0.528377533350962 1.327148437500000 148 143 131
0.290328839022287 -0.521517613931400 1.327148437500000 149 142 130
0.290328839022287 -0.514657694511837 1.327148437500000 149 142 130
0.290542473193753 -0.508171430555918 1.328125000000000 149 142 130
0.290542473193753 -0.501306463366363 1.328125000000000 148 144 131
0.290542473193753 -0.494441496176809 1.328125000000000 149 144 131
0.290328839022287 -0.487218016833587 1.327148437500000 148 144 131
0.290328839022287 -0.480358097414024 1.327148437500000 150 144 131
0.290542473193753 -0.473846594608144 1.328125000000000 150 143 131
0.290328839022287 -0.466638258574899 1.327148437500000 149 144 131
0.290328839022287 -0.459778339155336 1.327148437500000 149 144 131
0.290542473193753 -0.453251693039479 1.328125000000000 149 145 132
0.290542473193753 -0.446386725849924 1.328125000000000 150 145 132
0.290328839022287 -0.439198580896648 1.327148437500000 150 145 132
0.290328839022287 -0.432338661477086 1.327148437500000 150 144 132
0.290328839022287 -0.425478742057523 1.327148437500000 151 144 133
0.290328839022287 -0.418618822637961 1.327148437500000 151 144 133
0.290328839022287 -0.411758903218398 1.327148437500000 150 145 132
0.290328839022287 -0.404898983798835 1.327148437500000 151 146 133
0.290328839022287 -0.398039064379273 1.327148437500000 150 146 133
0.290328839022287 -0.391179144959710 1.327148437500000 149 146 133
0.290328839022287 -0.384319225540147 1.327148437500000 149 146 133
0.290328839022287 -0.377459306120585 1.327148437500000 151 146 133
0.290328839022287 -0.370599386701022 1.327148437500000 150 145 133
0.290328839022287 -0.363739467281460 1.327148437500000 150 147 134
0.290328839022287 -0.356879547861897 1.327148437500000 150 147 134
0.290328839022287 -0.350019628442334 1.327148437500000 150 147 134
0.290115204850821 -0.342907200038943 1.326171875000000 150 147 134
0.290115204850821 -0.336052328389373 1.326171875000000 151 147 134
0.290115204850821 -0.329197456739803 1.326171875000000 151 147 134
0.290115204850821 -0.322342585090233 1.326171875000000 151 147 133
0.290115204850821 -0.315487713440662 1.326171875000000 150 147 132
0.290115204850821 -0.308632841791092 1.326171875000000 150 148 133
0.290115204850821 -0.301777970141522 1.326171875000000 149 147 132
0.290115204850821 -0.294923098491951 1.326171875000000 150 148 133
0.289901570679355 -0.287856100018491 1.325195312500000 151 149 133
0.289901570679355 -0.281006276138913 1.325195312500000 150 148 132
0.289901570679355 -0.274156452259335 1.325195312500000 150 148 132
0.289901570679355 -0.267306628379757 1.325195312500000 151 149 133
0.289901570679355 -0.260456804500180 1.325195312500000 151 149 133
0.289687936507889 -0.253420092646673 1.324218750000000 152 148 133
0.289901570679355 -0.246757156741024 1.325195312500000 152 148 133
0.289901570679355 -0.239907332861446 1.325195312500000 151 149 133
0.289901570679355 -0.233057508981868 1.325195312500000 153 148 133
0.289687936507889 -0.226040988208331 1.324218750000000 152 148 133
0.289687936507889 -0.219196212098745 1.324218750000000 152 148 133
0.289687936507889 -0.212351435989159 1.324218750000000 153 148 133
0.289474302336423 -0.205355106295592 1.323242187500000 153 148 133
0.289474302336423 -0.198515377955998 1.323242187500000 153 148 133
0.289474302336423 -0.191675649616405 1.323242187500000 152 148 133
0.289474302336423 -0.184835921276812 1.323242187500000 152 148 133
0.289474302336423 -0.177996192937219 1.323242187500000 152 147 132
0.289474302336423 -0.171156464597625 1.323242187500000 151 148 133
0.289474302336423 -0.164316736258032 1.323242187500000 150 148 132
0.289260668164957 -0.157360788724403 1.322265625000000 151 148 132
0.289260668164957 -0.150526108154802 1.322265625000000 152 147 132
0.289260668164957 -0.143691427585201 1.322265625000000 153 148 133
0.289260668164957 -0.136856747015600 1.322265625000000 152 147 132
0.289260668164957 -0.130022066445999 1.322265625000000 152 147 132
0.289260668164957 -0.123187385876398 1.322265625000000 152 147 132
0.289047033993491 -0.116266772732715 1.321289062500000 152 147 132
0.289047033993491 -0.109437139933106 1.321289062500000 152 147 132
0.289047033993491 -0.102607507133498 1.321289062500000 152 147 132
0.289047033993491 -0.095777874333889 1.321289062500000 152 147 132
0.289047033993491 -0.088948241534280 1.321289062500000 152 147 132
0.288833399822025 -0.082057915010551 1.320312500000000 151 146 131
0.288833399822025 -0.075233329980935 1.320312500000000 151 146 131
0.288833399822025 -0.068408744951319 1.320312500000000 151 146 131
0.288833399822025 -0.061584159921702 1.320312500000000 151 146 131
0.288833399822025 -0.054759574892086 1.320312500000000 152 147 132
0.288833399822025 -0.047934989862469 1.320312500000000 152 147 132
0.288619765650559 -0.041079997728687 1.319335937500000 151 146 131
0.288619765650559 -0.034260460469063 1.319335937500000 151 146 131
0.288619765650559 -0.027440923209439 1.319335937500000 151 146 131
0.288619765650559 -0.020621385949815 1.319335937500000 151 146 131
0.288619765650559 -0.013801848690191 1.319335937500000 151 146 131
0.288619765650559 -0.006982311430567 1.319335937500000 150 145 130
0.288619765650559 -0.000162774170943 1.319335937500000 151 146 131
0.288619765650559 0.006656763088682 1.319335937500000 151 146 131
0.288406131479093 0.013466325292533 1.318359375000000 151 146 131
0.288192497307627 0.020265791956400 1.317382812500000 151 146 131
0.288406131479093 0.027095304271797 1.318359375000000 150 145 130
0.288192497307627 0.033884675395679 1.317382812500000 151 146 131
0.288192497307627 0.040694117115319 1.317382812500000 151 146 131
0.288192497307627 0.047503558834958 1.317382812500000 150 145 130
0.288192497307627 0.054313000554597 1.317382812500000 150 145 130
0.288192497307627 0.061122442274237 1.317382812500000 149 145 130
0.288192497307627 0.067931883993876 1.317382812500000 150 146 131
0.287978863136161 0.074685920727813 1.316406250000000 147 145 127
0.287978863136161 0.081490314677460 1.316406250000000 147 145 127
0.287978863136161 0.088294708627107 1.316406250000000 148 145 128
0.287978863136161 0.095099102576754 1.316406250000000 148 144 129
0.287765228964695 0.101827900460729 1.315429687500000 148 144 128
0.287765228964695 0.108627246640383 1.315429687500000 149 144 129
0.287551594793229 0.115340901214381 1.314453125000000 148 143 128
0.287551594793229 0.122135199624043 1.314453125000000 148 143 128
0.287551594793229 0.128929498033706 1.314453125000000 148 143 128
0.287551594793229 0.135723796443368 1.314453125000000 148 143 128
0.287337960621763 0.142412212167404 1.313476562500000 148 143 128
0.287337960621763 0.149201462807075 1.313476562500000 148 143 128
0.287124326450297 0.155874735221134 1.312500000000000 148 143 128
0.287124326450297 0.162658938090812 1.312500000000000 147 142 127
0.287124326450297 0.169443140960489 1.312500000000000 147 142 127
0.287124326450297 0.176227343830167 1.312500000000000 147 142 127
0.286910692278831 0.182875377394265 1.311523437500000 147 142 127
0.286910692278831 0.189654532493950 1.311523437500000 147 142 127
0.286910692278831 0.196433687593636 1.311523437500000 147 142 127
0.286910692278831 0.203212842693321 1.311523437500000 147 142 127
0.286910692278831 0.209991997793007 1.311523437500000 147 142 127
0.286697058107365 0.216609744737150 1.310546875000000 147 142 127
0.286697058107365 0.223383852066844 1.310546875000000 147 142 127
0.286697058107365 0.230157959396537 1.310546875000000 147 142 127
0.286697058107365 0.236932066726230 1.310546875000000 147 142 127
0.286483423935899 0.243524574820412 1.309570312500000 147 142 127
0.286483423935899 0.250293634380113 1.309570312500000 147 142 127
0.286483423935899 0.257062693939814 1.309570312500000 146 141 126
0.286483423935899 0.263831753499514 1.309570312500000 147 142 127
0.286483423935899 0.270600813059215 1.309570312500000 146 141 126
0.286483423935899 0.277369872618916 1.309570312500000 146 141 126
0.286483423935899 0.284138932178617 1.309570312500000 146 141 126
0.286483423935899 0.290907991738318 1.309570312500000 146 141 126
0.286483423935899 0.297677051298019 1.309570312500000 146 141 126
0.286483423935899 0.304446110857719 1.309570312500000 146 141 126
0.286269789764433 0.310983093481986 1.308593750000000 146 141 126
0.286269789764433 0.317747105271695 1.308593750000000 145 141 125
0.286269789764433 0.324511117061403 1.308593750000000 146 141 126
0.286269789764433 0.331275128851112 1.308593750000000 145 141 125
0.286269789764433 0.338039140640820 1.308593750000000 144 140 125
0.286269789764433 0.344803152430529 1.308593750000000 144 140 125
0.286269789764433 0.351567164220237 1.308593750000000 143 141 125
0.286269789764433 0.358331176009946 1.308593750000000 143 141 125
0.286269789764433 0.365095187799654 1.308593750000000 144 139 124
0.286269789764433 0.371859199589363 1.308593750000000 144 139 124
0.286056155592967 0.378340656743714 1.307617187500000 144 139 124
0.286056155592967 0.385099620763430 1.307617187500000 143 139 124
0.286269789764433 0.392151234958488 1.308593750000000 143 139 124
0.286056155592967 0.398617548802862 1.307617187500000 144 139 124
0.286056155592967 0.405376512822579 1.307617187500000 143 139 124
0.285842521421501 0.411827683356976 1.306640625000000 142 139 123
0.285842521421501 0.418581599606700 1.306640625000000 141 139 123
0.286056155592967 0.425653404881727 1.307617187500000 142 138 123
0.286056155592967 0.432412368901443 1.307617187500000 142 138 123
0.286056155592967 0.439171332921160 1.307617187500000 142 138 122
0.286056155592967 0.445930296940876 1.307617187500000 141 137 122
0.286056155592967 0.452689260960592 1.307617187500000 140 136 121
0.285842521421501 0.459105097105043 1.306640625000000 141 137 121
0.285842521421501 0.465859013354767 1.306640625000000 141 136 121
0.285842521421501 0.472612929604491 1.306640625000000 141 136 121
0.285842521421501 0.479366845854215 1.306640625000000 141 136 121
0.285628887250035 0.485757443148704 1.305664062500000 142 137 122
0.285628887250035 0.492506311628435 1.305664062500000 141 136 121
0.285628887250035 0.499255180108167 1.305664062500000 141 136 121
0.285628887250035 0.506004048587899 1.305664062500000 141 136 121
0.285628887250035 0.512752917067630 1.305664062500000 140 135 120
0.285415253078569 0.519113227742166 1.304687500000000 141 136 121
0.285415253078569 0.525857048451905 1.304687500000000 140 135 120
0.285415253078569 0.532600869161644 1.304687500000000 140 135 120
0.285415253078569 0.539344689871383 1.304687500000000 140 135 120
0.285415253078569 0.546088510581122 1.304687500000000 139 134 119
0.285415253078569 0.552832331290862 1.304687500000000 139 134 119
0.285415253078569 0.559576152000601 1.304687500000000 139 134 119
0.285201618907103 0.565896080515198 1.303710937500000 140 135 120
0.285201618907103 0.572634853454945 1.303710937500000 139 134 119
0.285201618907103 0.579373626394692 1.303710937500000 139 133 119
0.284987984735637 0.585673363829319 1.302734375000000 138 133 119
0.284987984735637 0.592407088999074 1.302734375000000 137 131 118
0.284987984735637 0.599140814168828 1.302734375000000 137 130 118
0.284774350564171 0.605420360523487 1.301757812500000 137 130 118
0.284560716392705 0.611689811338160 1.300781250000000 137 130 118
0.284560716392705 0.618413440967930 1.300781250000000 137 131 116
0.284560716392705 0.625137070597700 1.300781250000000 137 132 117
0.284347082221239 0.631386330332404 1.299804687500000 136 131 116
0.284347082221239 0.638104912192182 1.299804687500000 136 131 116
0.284347082221239 0.644823494051960 1.299804687500000 135 132 116
0.284133448049773 0.651052562706695 1.298828125000000 135 131 117
0.283706179706841 0.656776974846410 1.296875000000000 135 129 117
0.283492545535375 0.662980804651183 1.295898437500000 135 128 116
0.283065277192443 0.668669882400953 1.293945312500000 135 128 116
0.282851643020977 0.674848473355765 1.292968750000000 135 128 116
0.283492545535375 0.683075976990609 1.295898437500000 134 127 115
0.283065277192443 0.688734768120424 1.293945312500000 135 128 116
0.282424374678045 0.693848520575281 1.291015625000000 134 127 115
0.297188758441849 -0.596976727546588 1.327148437500000 144 138 130
0.296751394558933 -0.589248350719922 1.325195312500000 145 139 131
0.296751394558933 -0.582398526840344 1.325195312500000 145 140 129
0.296532712617474 -0.575124569797199 1.324218750000000 146 141 130
0.296314030676016 -0.567860708294038 1.323242187500000 146 141 130
0.296532712617474 -0.561435017578027 1.324218750000000 146 141 130
0.296751394558933 -0.554999231322032 1.325195312500000 147 142 130
0.296751394558933 -0.548149407442454 1.325195312500000 147 142 131
0.296970076500391 -0.541698477876482 1.326171875000000 147 142 131
0.296970076500391 -0.534843606226911 1.326171875000000 147 143 132
0.297188758441849 -0.528377533350962 1.327148437500000 148 142 131
0.297188758441849 -0.521517613931400 1.327148437500000 149 142 130
0.297188758441849 -0.514657694511837 1.327148437500000 149 141 129
0.297188758441849 -0.507797775092274 1.327148437500000 148 142 129
0.297407440383308 -0.501306463366363 1.328125000000000 148 142 129
0.297407440383308 -0.494441496176809 1.328125000000000 148 143 130
0.297407440383308 -0.487576528987254 1.328125000000000 148 144 131
0.297407440383308 -0.480711561797699 1.328125000000000 148 145 131
0.297407440383308 -0.473846594608144 1.328125000000000 148 143 130
0.297407440383308 -0.466981627418589 1.328125000000000 148 144 131
0.297188758441849 -0.459778339155336 1.327148437500000 149 144 131
0.297407440383308 -0.453251693039479 1.328125000000000 148 144 131
0.297188758441849 -0.446058500316211 1.327148437500000 149 144 131
0.297188758441849 -0.439198580896648 1.327148437500000 150 143 131
0.297188758441849 -0.432338661477086 1.327148437500000 150 144 132
0.297188758441849 -0.425478742057523 1.327148437500000 150 145 133
0.297188758441849 -0.418618822637961 1.327148437500000 151 144 133
0.297188758441849 -0.411758903218398 1.327148437500000 150 145 132
0.297188758441849 -0.404898983798835 1.327148437500000 149 146 133
0.297188758441849 -0.398039064379273 1.327148437500000 149 146 133
0.297188758441849 -0.391179144959710 1.327148437500000 149 146 133
0.296970076500391 -0.384036429936365 1.326171875000000 149 146 133
0.297188758441849 -0.377459306120585 1.327148437500000 149 146 133
0.297188758441849 -0.370599386701022 1.327148437500000 149 147 133
0.297188758441849 -0.363739467281460 1.327148437500000 150 147 134
0.297188758441849 -0.356879547861897 1.327148437500000 149 146 133
0.296970076500391 -0.349762071688514 1.326171875000000 150 146 133
0.296970076500391 -0.342907200038943 1.326171875000000 150 147 133
0.297188758441849 -0.336299789603209 1.327148437500000 150 147 134
0.297188758441849 -0.329439870183647 1.327148437500000 151 147 134
0.296970076500391 -0.322342585090233 1.326171875000000 152 146 134
0.296970076500391 -0.315487713440662 1.326171875000000 151 146 133
0.296970076500391 -0.308632841791092 1.326171875000000 151 146 133
0.296970076500391 -0.301777970141522 1.326171875000000 150 147 134
0.296970076500391 -0.294923098491951 1.326171875000000 150 147 134
0.296751394558933 -0.287856100018491 1.325195312500000 151 149 133
0.296751394558933 -0.281006276138913 1.325195312500000 151 149 133
0.296751394558933 -0.274156452259335 1.325195312500000 150 148 132
0.296751394558933 -0.267306628379757 1.325195312500000 150 148 132
0.296751394558933 -0.260456804500180 1.325195312500000 151 149 133
0.296532712617474 -0.253420092646673 1.324218750000000 151 148 133
0.296751394558933 -0.246757156741024 1.325195312500000 152 148 133
0.296751394558933 -0.239907332861446 1.325195312500000 153 148 133
0.296751394558933 -0.233057508981868 1.325195312500000 153 148 133
0.296532712617474 -0.226040988208331 1.324218750000000 153 148 133
0.296532712617474 -0.219196212098745 1.324218750000000 152 148 133
0.296314030676016 -0.212194834635185 1.323242187500000 152 148 132
0.296314030676016 -0.205355106295592 1.323242187500000 152 148 132
0.296314030676016 -0.198515377955998 1.323242187500000 153 147 133
0.296314030676016 -0.191675649616405 1.323242187500000 152 147 132
0.296314030676016 -0.184835921276812 1.323242187500000 152 147 132
0.296314030676016 -0.177996192937219 1.323242187500000 152 147 132
0.296314030676016 -0.171156464597625 1.323242187500000 151 148 132
0.296314030676016 -0.164316736258032 1.323242187500000 150 147 132
0.296095348734558 -0.157360788724403 1.322265625000000 150 148 132
0.296095348734558 -0.150526108154802 1.322265625000000 152 147 132
0.296095348734558 -0.143691427585201 1.322265625000000 152 147 132
0.296095348734558 -0.136856747015600 1.322265625000000 152 147 132
0.296095348734558 -0.130022066445999 1.322265625000000 152 147 132
0.296095348734558 -0.123187385876398 1.322265625000000 152 147 132
0.295876666793099 -0.116266772732715 1.321289062500000 152 147 132
0.295876666793099 -0.109437139933106 1.321289062500000 152 147 132
0.295876666793099 -0.102607507133498 1.321289062500000 152 147 132
0.295876666793099 -0.095777874333889 1.321289062500000 151 146 131
0.295876666793099 -0.088948241534280 1.321289062500000 151 146 131
0.295657984851641 -0.082057915010551 1.320312500000000 151 146 131
0.295657984851641 -0.075233329980935 1.320312500000000 151 146 131
0.295657984851641 -0.068408744951319 1.320312500000000 151 146 131
0.295657984851641 -0.061584159921702 1.320312500000000 151 146 131
0.295657984851641 -0.054759574892086 1.320312500000000 150 145 130
0.295657984851641 -0.047934989862469 1.320312500000000 151 146 131
0.295657984851641 -0.041110404832853 1.320312500000000 151 146 131
0.295439302910183 -0.034260460469063 1.319335937500000 151 146 131
0.295439302910183 -0.027440923209439 1.319335937500000 151 146 131
0.295439302910183 -0.020621385949815 1.319335937500000 150 145 130
0.295439302910183 -0.013801848690191 1.319335937500000 151 146 131
0.295439302910183 -0.006982311430567 1.319335937500000 150 145 130
0.295439302910183 -0.000162774170943 1.319335937500000 150 145 130
0.295439302910183 0.006656763088682 1.319335937500000 150 145 130
0.295220620968725 0.013466325292533 1.318359375000000 150 145 130
0.295220620968725 0.020280814782165 1.318359375000000 150 145 130
0.295220620968725 0.027095304271797 1.318359375000000 150 145 130
0.295220620968725 0.033909793761428 1.318359375000000 151 146 131
0.295220620968725 0.040724283251060 1.318359375000000 151 146 131
0.295001939027266 0.047503558834958 1.317382812500000 150 145 130
0.295001939027266 0.054313000554597 1.317382812500000 149 145 130
0.295001939027266 0.061122442274237 1.317382812500000 148 145 129
0.294783257085808 0.067881526778166 1.316406250000000 148 146 130
0.294783257085808 0.074685920727813 1.316406250000000 147 145 127
0.294783257085808 0.081490314677460 1.316406250000000 147 145 127
0.294783257085808 0.088294708627107 1.316406250000000 147 145 128
0.294783257085808 0.095099102576754 1.316406250000000 146 144 128
0.294564575144350 0.101827900460729 1.315429687500000 148 144 128
0.294564575144350 0.108627246640383 1.315429687500000 148 143 128
0.294564575144350 0.115426592820038 1.315429687500000 148 143 128
0.294345893202891 0.122135199624043 1.314453125000000 147 142 127
0.294345893202891 0.128929498033706 1.314453125000000 147 142 127
0.294127211261433 0.135622961527734 1.313476562500000 147 142 127
0.294127211261433 0.142412212167404 1.313476562500000 148 143 128
0.294127211261433 0.149201462807075 1.313476562500000 148 143 128
0.293908529319975 0.155874735221134 1.312500000000000 147 142 127
0.293908529319975 0.162658938090812 1.312500000000000 147 142 127
0.293689847378516 0.169317067194894 1.311523437500000 147 142 127
0.293689847378516 0.176096222294579 1.311523437500000 146 141 126
0.293689847378516 0.182875377394265 1.311523437500000 147 142 127
0.293689847378516 0.189654532493950 1.311523437500000 147 142 127
0.293689847378516 0.196433687593636 1.311523437500000 147 142 127
0.293689847378516 0.203212842693321 1.311523437500000 146 141 126
0.293471165437058 0.209835637407457 1.310546875000000 146 141 126
0.293471165437058 0.216609744737150 1.310546875000000 147 142 127
0.293471165437058 0.223383852066844 1.310546875000000 147 142 127
0.293471165437058 0.230157959396537 1.310546875000000 147 142 127
0.293252483495600 0.236755515260711 1.309570312500000 147 142 127
0.293252483495600 0.243524574820412 1.309570312500000 147 142 127
0.293252483495600 0.250293634380113 1.309570312500000 147 142 127
0.293252483495600 0.257062693939814 1.309570312500000 146 141 126
0.293252483495600 0.263831753499514 1.309570312500000 146 141 126
0.293033801554141 0.270399022743735 1.308593750000000 145 140 125
0.293033801554141 0.277163034533443 1.308593750000000 146 141 126
0.293033801554141 0.283927046323152 1.308593750000000 145 140 125
0.293252483495600 0.290907991738318 1.309570312500000 146 141 126
0.293252483495600 0.297677051298019 1.309570312500000 145 140 125
0.293033801554141 0.304219081692278 1.308593750000000 145 140 125
0.293033801554141 0.310983093481986 1.308593750000000 145 141 125
0.293252483495600 0.317984229977121 1.309570312500000 144 141 125
0.293033801554141 0.324511117061403 1.308593750000000 145 140 125
0.293033801554141 0.331275128851112 1.308593750000000 144 140 125
0.293033801554141 0.338039140640820 1.308593750000000 142 140 124
0.293033801554141 0.344803152430529 1.308593750000000 143 140 124
0.293033801554141 0.351567164220237 1.308593750000000 143 141 125
0.292815119612683 0.358063764684565 1.307617187500000 143 141 125
0.292815119612683 0.364822728704281 1.307617187500000 144 139 124
0.292815119612683 0.371581692723998 1.307617187500000 144 139 124
0.292815119612683 0.378340656743714 1.307617187500000 143 139 124
0.292815119612683 0.385099620763430 1.307617187500000 143 138 123
0.292815119612683 0.391858584783146 1.307617187500000 143 138 123
0.292815119612683 0.398617548802862 1.307617187500000 142 138 123
0.292815119612683 0.405376512822579 1.307617187500000 141 139 123
0.292596437671225 0.411827683356976 1.306640625000000 141 139 123
0.292815119612683 0.418894440862011 1.307617187500000 141 138 122
0.292815119612683 0.425653404881727 1.307617187500000 141 137 122
0.292815119612683 0.432412368901443 1.307617187500000 141 138 122
0.292596437671225 0.438843348355871 1.306640625000000 140 138 122
0.292596437671225 0.445597264605595 1.306640625000000 140 138 122
0.292596437671225 0.452351180855319 1.306640625000000 139 137 121
0.292596437671225 0.459105097105043 1.306640625000000 140 137 121
0.292596437671225 0.465859013354767 1.306640625000000 142 136 121
0.292596437671225 0.472612929604491 1.306640625000000 141 136 121
0.292377755729766 0.479008574668972 1.305664062500000 141 136 121
0.292377755729766 0.485757443148704 1.305664062500000 141 136 121
0.292377755729766 0.492506311628435 1.305664062500000 141 136 121
0.292377755729766 0.499255180108167 1.305664062500000 140 135 120
0.292377755729766 0.506004048587899 1.305664062500000 141 136 121
0.292377755729766 0.512752917067630 1.305664062500000 140 135 120
0.292159073788308 0.519113227742166 1.304687500000000 140 135 120
0.292159073788308 0.525857048451905 1.304687500000000 140 135 120
0.292159073788308 0.532600869161644 1.304687500000000 140 135 120
0.292159073788308 0.539344689871383 1.304687500000000 139 134 119
0.292159073788308 0.546088510581122 1.304687500000000 139 134 119
0.292159073788308 0.552832331290862 1.304687500000000 139 134 119
0.292159073788308 0.559576152000601 1.304687500000000 139 134 119
0.291940391846850 0.565896080515198 1.303710937500000 139 134 119
0.291940391846850 0.572634853454945 1.303710937500000 138 133 119
0.291940391846850 0.579373626394692 1.303710937500000 139 132 120
0.291940391846850 0.586112399334439 1.303710937500000 138 131 119
0.291721709905392 0.592407088999074 1.302734375000000 138 131 119
0.291721709905392 0.599140814168828 1.302734375000000 137 130 118
0.291503027963933 0.605420360523487 1.301757812500000 137 130 118
0.291503027963933 0.612149037923249 1.301757812500000 138 131 119
0.291284346022475 0.618413440967930 1.300781250000000 137 132 118
0.291284346022475 0.625137070597700 1.300781250000000 137 132 117
0.291284346022475 0.631860700227470 1.300781250000000 137 131 116
0.291065664081017 0.638104912192182 1.299804687500000 136 131 116
0.291065664081017 0.644823494051960 1.299804687500000 135 131 117
0.290846982139558 0.651052562706695 1.298828125000000 135 129 117
0.290409618256642 0.656776974846410 1.296875000000000 135 128 116
0.290409618256642 0.663480413396211 1.296875000000000 135 128 116
0.289972254373725 0.669174538915972 1.294921875000000 135 128 116
0.289316208549350 0.674338769070753 1.291992187500000 135 128 116
0.289972254373725 0.682561224935604 1.294921875000000 134 127 115
0.289534890490808 0.688214968295427 1.292968750000000 134 127 115
0.288878844666433 0.693323672980292 1.290039062500000 133 126 114
0.303824948149961 -0.596537451073044 1.326171875000000 144 138 130
0.303601218438511 -0.589248350719922 1.325195312500000 144 138 130
0.303601218438511 -0.582398526840344 1.325195312500000 144 139 129
0.303377488727060 -0.575124569797199 1.324218750000000 145 140 129
0.303153759015609 -0.567860708294038 1.323242187500000 146 141 130
0.303377488727060 -0.561435017578027 1.324218750000000 146 141 129
0.303601218438511 -0.554999231322032 1.325195312500000 146 141 129
0.303601218438511 -0.548149407442454 1.325195312500000 147 142 131
0.303824948149961 -0.541698477876482 1.326171875000000 148 143 132
0.303824948149961 -0.534843606226911 1.326171875000000 147 142 131
0.304048677861412 -0.528377533350962 1.327148437500000 148 142 130
0.304048677861412 -0.521517613931400 1.327148437500000 148 141 130
0.304048677861412 -0.514657694511837 1.327148437500000 148 142 130
0.304048677861412 -0.507797775092274 1.327148437500000 148 142 130
0.304048677861412 -0.500937855672712 1.327148437500000 148 142 129
0.304272407572863 -0.494441496176809 1.328125000000000 148 143 130
0.304272407572863 -0.487576528987254 1.328125000000000 148 143 130
0.304272407572863 -0.480711561797699 1.328125000000000 147 143 130
0.304272407572863 -0.473846594608144 1.328125000000000 146 143 130
0.304272407572863 -0.466981627418589 1.328125000000000 147 143 130
0.304272407572863 -0.460116660229034 1.328125000000000 148 143 130
0.304272407572863 -0.453251693039479 1.328125000000000 149 144 131
0.304048677861412 -0.446058500316211 1.327148437500000 149 143 131
0.304048677861412 -0.439198580896648 1.327148437500000 150 143 131
0.304048677861412 -0.432338661477086 1.327148437500000 149 144 131
0.304048677861412 -0.425478742057523 1.327148437500000 149 144 131
0.304048677861412 -0.418618822637961 1.327148437500000 149 144 131
0.304048677861412 -0.411758903218398 1.327148437500000 149 144 131
0.304048677861412 -0.404898983798835 1.327148437500000 149 145 132
0.303824948149961 -0.397746173235506 1.326171875000000 149 145 133
0.304048677861412 -0.391179144959710 1.327148437500000 148 145 132
0.303824948149961 -0.384036429936365 1.326171875000000 149 146 133
0.303824948149961 -0.377181558286795 1.326171875000000 149 146 133
0.303824948149961 -0.370326686637225 1.326171875000000 149 146 133
0.303824948149961 -0.363471814987654 1.326171875000000 149 146 133
0.304048677861412 -0.356879547861897 1.327148437500000 149 146 133
0.303824948149961 -0.349762071688514 1.326171875000000 149 146 133
0.303824948149961 -0.342907200038943 1.326171875000000 149 146 133
0.303824948149961 -0.336052328389373 1.326171875000000 150 146 133
0.304048677861412 -0.329439870183647 1.327148437500000 150 147 134
0.303824948149961 -0.322342585090233 1.326171875000000 150 146 133
0.303824948149961 -0.315487713440662 1.326171875000000 149 146 133
0.303824948149961 -0.308632841791092 1.326171875000000 150 146 133
0.303824948149961 -0.301777970141522 1.326171875000000 151 146 133
0.303601218438511 -0.294705923898069 1.325195312500000 150 147 133
0.303601218438511 -0.287856100018491 1.325195312500000 150 148 132
0.303601218438511 -0.281006276138913 1.325195312500000 150 148 132
0.303601218438511 -0.274156452259335 1.325195312500000 150 148 132
0.303601218438511 -0.267306628379757 1.325195312500000 150 148 132
0.303601218438511 -0.260456804500180 1.325195312500000 150 148 132
0.303601218438511 -0.253606980620602 1.325195312500000 151 147 132
0.303601218438511 -0.246757156741024 1.325195312500000 151 148 132
0.303601218438511 -0.239907332861446 1.325195312500000 152 148 133
0.303601218438511 -0.233057508981868 1.325195312500000 153 148 133
0.303601218438511 -0.226207685102290 1.325195312500000 153 148 133
0.303377488727060 -0.219196212098745 1.324218750000000 152 148 133
0.303377488727060 -0.212351435989159 1.324218750000000 150 148 132
0.303377488727060 -0.205506659879574 1.324218750000000 151 148 132
0.303153759015609 -0.198515377955998 1.323242187500000 152 147 132
0.303153759015609 -0.191675649616405 1.323242187500000 152 147 132
0.303153759015609 -0.184835921276812 1.323242187500000 152 147 132
0.303153759015609 -0.177996192937219 1.323242187500000 152 147 132
0.302930029304159 -0.171030149863605 1.322265625000000 152 146 131
0.302930029304159 -0.164195469294004 1.322265625000000 151 146 131
0.302930029304159 -0.157360788724403 1.322265625000000 152 147 132
0.302930029304159 -0.150526108154802 1.322265625000000 152 147 132
0.303153759015609 -0.143797551239252 1.323242187500000 152 147 132
0.302930029304159 -0.136856747015600 1.322265625000000 152 147 132
0.302706299592708 -0.129926038331932 1.321289062500000 152 147 132
0.302706299592708 -0.123096405532324 1.321289062500000 152 147 132
0.302706299592708 -0.116266772732715 1.321289062500000 152 147 132
0.302706299592708 -0.109437139933106 1.321289062500000 152 147 132
0.302706299592708 -0.102607507133498 1.321289062500000 152 147 132
0.302482569881258 -0.095707085069784 1.320312500000000 151 146 131
0.302482569881258 -0.088882500040168 1.320312500000000 151 146 131
0.302482569881258 -0.082057915010551 1.320312500000000 151 146 131
0.302482569881258 -0.075233329980935 1.320312500000000 151 146 131
0.302706299592708 -0.068459343135454 1.321289062500000 151 146 131
0.302482569881258 -0.061584159921702 1.320312500000000 151 146 131
0.302482569881258 -0.054759574892086 1.320312500000000 151 146 131
0.302482569881258 -0.047934989862469 1.320312500000000 151 146 131
0.302258840169807 -0.041079997728687 1.319335937500000 151 146 131
0.302258840169807 -0.034260460469063 1.319335937500000 150 145 130
0.302258840169807 -0.027440923209439 1.319335937500000 150 145 130
0.302258840169807 -0.020621385949815 1.319335937500000 151 146 131
0.302258840169807 -0.013801848690191 1.319335937500000 150 145 130
0.302258840169807 -0.006982311430567 1.319335937500000 150 145 130
0.302258840169807 -0.000162774170943 1.319335937500000 150 145 130
0.302258840169807 0.006656763088682 1.319335937500000 150 145 130
0.302258840169807 0.013476300348306 1.319335937500000 149 144 129
0.302258840169807 0.020295837607930 1.319335937500000 150 145 130
0.302258840169807 0.027115374867554 1.319335937500000 149 145 129
0.302035110458356 0.033909793761428 1.318359375000000 149 145 130
0.302035110458356 0.040724283251060 1.318359375000000 150 145 130
0.301811380746906 0.047503558834958 1.317382812500000 150 145 130
0.301811380746906 0.054313000554597 1.317382812500000 149 145 130
0.301811380746906 0.061122442274237 1.317382812500000 147 145 129
0.301811380746906 0.067931883993876 1.317382812500000 147 145 129
0.301587651035455 0.074685920727813 1.316406250000000 147 145 128
0.301587651035455 0.081490314677460 1.316406250000000 147 145 129
0.301587651035455 0.088294708627107 1.316406250000000 146 144 128
0.301363921324004 0.095028554281074 1.315429687500000 146 144 128
0.301363921324004 0.101827900460729 1.315429687500000 147 143 128
0.301363921324004 0.108627246640383 1.315429687500000 148 143 128
0.301140191612554 0.115340901214381 1.314453125000000 148 143 128
0.301140191612554 0.122135199624043 1.314453125000000 147 142 127
0.301140191612554 0.128929498033706 1.314453125000000 147 142 127
0.300916461901103 0.135622961527734 1.313476562500000 147 142 127
0.300916461901103 0.142412212167404 1.313476562500000 147 142 127
0.300916461901103 0.149201462807075 1.313476562500000 146 141 126
0.300692732189652 0.155874735221134 1.312500000000000 147 142 127
0.300692732189652 0.162658938090812 1.312500000000000 147 142 127
0.300469002478202 0.169317067194894 1.311523437500000 147 142 127
0.300469002478202 0.176096222294579 1.311523437500000 146 141 126
0.300469002478202 0.182875377394265 1.311523437500000 146 141 126
0.300469002478202 0.189654532493950 1.311523437500000 146 141 126
0.300469002478202 0.196433687593636 1.311523437500000 145 141 126
0.300469002478202 0.203212842693321 1.311523437500000 146 141 126
0.300245272766751 0.209835637407457 1.310546875000000 146 141 126
0.300245272766751 0.216609744737150 1.310546875000000 146 141 126
0.300245272766751 0.223383852066844 1.310546875000000 146 141 126
0.300245272766751 0.230157959396537 1.310546875000000 146 141 126
0.300021543055301 0.236755515260711 1.309570312500000 147 142 127
0.300021543055301 0.243524574820412 1.309570312500000 147 142 127
0.300021543055301 0.250293634380113 1.309570312500000 146 141 126
0.300021543055301 0.257062693939814 1.309570312500000 146 141 126
0.300021543055301 0.263831753499514 1.309570312500000 146 141 126
0.299797813343850 0.270399022743735 1.308593750000000 145 140 125
0.300021543055301 0.277369872618916 1.309570312500000 146 141 126
0.299797813343850 0.283927046323152 1.308593750000000 146 141 126
0.300021543055301 0.290907991738318 1.309570312500000 145 140 125
0.299797813343850 0.297455069902569 1.308593750000000 145 140 125
0.299797813343850 0.304219081692278 1.308593750000000 145 140 125
0.299797813343850 0.310983093481986 1.308593750000000 143 141 125
0.299797813343850 0.317747105271695 1.308593750000000 144 140 125
0.299797813343850 0.324511117061403 1.308593750000000 145 140 125
0.299797813343850 0.331275128851112 1.308593750000000 144 140 125
0.299797813343850 0.338039140640820 1.308593750000000 142 140 124
0.299797813343850 0.344803152430529 1.308593750000000 143 140 124
0.299797813343850 0.351567164220237 1.308593750000000 144 139 124
0.299574083632399 0.358063764684565 1.307617187500000 144 139 124
0.299574083632399 0.364822728704281 1.307617187500000 144 139 124
0.299574083632399 0.371581692723998 1.307617187500000 144 139 124
0.299574083632399 0.378340656743714 1.307617187500000 142 139 124
0.299574083632399 0.385099620763430 1.307617187500000 143 138 123
0.299350353920949 0.391565934607804 1.306640625000000 143 138 123
0.299574083632399 0.398617548802862 1.307617187500000 143 138 123
0.299574083632399 0.405376512822579 1.307617187500000 141 138 123
0.299574083632399 0.412135476842295 1.307617187500000 142 138 123
0.299574083632399 0.418894440862011 1.307617187500000 142 137 122
0.299350353920949 0.425335515856424 1.306640625000000 141 137 122
0.299574083632399 0.432412368901443 1.307617187500000 141 137 122
0.299350353920949 0.438843348355871 1.306640625000000 139 138 122
0.299350353920949 0.445597264605595 1.306640625000000 140 138 122
0.299350353920949 0.452351180855319 1.306640625000000 139 137 121
0.299350353920949 0.459105097105043 1.306640625000000 140 137 121
0.299350353920949 0.465859013354767 1.306640625000000 141 136 121
0.299350353920949 0.472612929604491 1.306640625000000 141 136 121
0.299126624209498 0.479008574668972 1.305664062500000 141 136 121
0.299126624209498 0.485757443148704 1.305664062500000 141 136 121
0.299126624209498 0.492506311628435 1.305664062500000 141 136 121
0.299126624209498 0.499255180108167 1.305664062500000 141 136 121
0.299126624209498 0.506004048587899 1.305664062500000 140 135 120
0.299126624209498 0.512752917067630 1.305664062500000 140 135 120
0.298902894498047 0.519113227742166 1.304687500000000 140 135 120
0.298902894498047 0.525857048451905 1.304687500000000 140 135 120
0.298902894498047 0.532600869161644 1.304687500000000 139 134 119
0.298902894498047 0.539344689871383 1.304687500000000 139 134 119
0.298902894498047 0.546088510581122 1.304687500000000 139 134 119
0.298902894498047 0.552832331290862 1.304687500000000 139 134 119
0.298902894498047 0.559576152000601 1.304687500000000 138 133 118
0.298679164786597 0.565896080515198 1.303710937500000 139 134 119
0.298679164786597 0.572634853454945 1.303710937500000 138 133 118
0.298679164786597 0.579373626394692 1.303710937500000 139 132 120
0.298679164786597 0.586112399334439 1.303710937500000 138 131 119
0.298455435075146 0.592407088999074 1.302734375000000 138 131 119
0.298231705363696 0.598691683123724 1.301757812500000 138 131 118
0.298231705363696 0.605420360523487 1.301757812500000 137 130 118
0.298007975652245 0.611689811338160 1.300781250000000 137 131 118
0.298007975652245 0.618413440967930 1.300781250000000 137 131 117
0.298007975652245 0.625137070597700 1.300781250000000 136 131 116
0.297784245940794 0.631386330332404 1.299804687500000 136 131 116
0.297784245940794 0.638104912192182 1.299804687500000 135 130 116
0.297560516229344 0.644339028616909 1.298828125000000 135 130 116
0.297560516229344 0.651052562706695 1.298828125000000 135 129 117
0.297113056806442 0.656776974846410 1.296875000000000 135 128 116
0.296889327094992 0.662980804651183 1.295898437500000 135 128 116
0.296441867672090 0.668669882400953 1.293945312500000 135 128 116
0.295994408249189 0.674338769070753 1.291992187500000 134 127 115
0.296441867672090 0.682046472880600 1.293945312500000 134 127 115
0.295994408249189 0.687695168470431 1.291992187500000 134 127 115
0.295770678537739 0.693848520575281 1.291015625000000 134 127 115
0.310908597280975 -0.596976727546588 1.327148437500000 144 138 130
0.310451042318089 -0.589248350719922 1.325195312500000 144 138 130
0.310451042318089 -0.582398526840344 1.325195312500000 144 138 130
0.310222264836646 -0.575124569797199 1.324218750000000 145 140 129
0.309993487355203 -0.567860708294038 1.323242187500000 145 140 129
0.310222264836646 -0.561435017578027 1.324218750000000 146 141 130
0.310451042318089 -0.554999231322032 1.325195312500000 145 140 129
0.310451042318089 -0.548149407442454 1.325195312500000 146 141 130
0.310679819799532 -0.541698477876482 1.326171875000000 146 141 129
0.310679819799532 -0.534843606226911 1.326171875000000 147 142 129
0.310679819799532 -0.527988734577341 1.326171875000000 148 142 130
0.310908597280975 -0.521517613931400 1.327148437500000 147 142 131
0.310908597280975 -0.514657694511837 1.327148437500000 147 143 131
0.310908597280975 -0.507797775092274 1.327148437500000 147 142 129
0.310908597280975 -0.500937855672712 1.327148437500000 148 142 130
0.310908597280975 -0.494077936253149 1.327148437500000 146 143 130
0.311137374762418 -0.487576528987254 1.328125000000000 146 143 130
0.311137374762418 -0.480711561797699 1.328125000000000 146 143 130
0.311137374762418 -0.473846594608144 1.328125000000000 146 143 130
0.310908597280975 -0.466638258574899 1.327148437500000 146 143 130
0.311137374762418 -0.460116660229034 1.328125000000000 148 143 130
0.311137374762418 -0.453251693039479 1.328125000000000 148 143 130
0.310908597280975 -0.446058500316211 1.327148437500000 146 143 130
0.310908597280975 -0.439198580896648 1.327148437500000 148 144 131
0.310908597280975 -0.432338661477086 1.327148437500000 148 143 130
0.310908597280975 -0.425478742057523 1.327148437500000 149 144 131
0.310908597280975 -0.418618822637961 1.327148437500000 150 144 131
0.310908597280975 -0.411758903218398 1.327148437500000 149 144 131
0.310908597280975 -0.404898983798835 1.327148437500000 149 144 131
0.310908597280975 -0.398039064379273 1.327148437500000 149 145 132
0.310908597280975 -0.391179144959710 1.327148437500000 148 145 132
0.310908597280975 -0.384319225540147 1.327148437500000 148 145 132
0.310679819799532 -0.377181558286795 1.326171875000000 148 145 132
0.310679819799532 -0.370326686637225 1.326171875000000 148 145 132
0.310908597280975 -0.363739467281460 1.327148437500000 148 145 132
0.310908597280975 -0.356879547861897 1.327148437500000 148 145 132
0.310908597280975 -0.350019628442334 1.327148437500000 148 145 132
0.310908597280975 -0.343159709022772 1.327148437500000 149 146 133
0.310679819799532 -0.336052328389373 1.326171875000000 149 146 133
0.310679819799532 -0.329197456739803 1.326171875000000 149 146 133
0.310679819799532 -0.322342585090233 1.326171875000000 149 146 133
0.310679819799532 -0.315487713440662 1.326171875000000 149 147 131
0.310679819799532 -0.308632841791092 1.326171875000000 149 146 132
0.310679819799532 -0.301777970141522 1.326171875000000 151 146 132
0.310451042318089 -0.294705923898069 1.325195312500000 150 146 131
0.310451042318089 -0.287856100018491 1.325195312500000 149 147 132
0.310451042318089 -0.281006276138913 1.325195312500000 149 147 132
0.310451042318089 -0.274156452259335 1.325195312500000 149 147 131
0.310451042318089 -0.267306628379757 1.325195312500000 149 147 131
0.310451042318089 -0.260456804500180 1.325195312500000 150 148 132
0.310451042318089 -0.253606980620602 1.325195312500000 150 148 132
