ply
format ascii 1.0
element vertex 715
property double x
property double y
property double z
property uchar red
property uchar green
property uchar blue
end_header
-0.378207800911062 0.879579955909097 2.406000000000000 139 128 102
-0.374906735317076 0.884234615686722 2.385000000000000 139 128 102
-0.371448476123375 0.888296193010314 2.363000000000000 137 128 101
-0.368461797728816 0.893273533758515 2.344000000000000 136 127 100
-0.365317925734542 0.897668133177682 2.324000000000000 136 127 100
-0.362331247339983 0.902247340613387 2.305000000000000 135 126 99
-0.359501762545137 0.907026667753128 2.287000000000000 132 123 96
-0.356515084150577 0.911218083001337 2.268000000000000 131 122 95
-0.353371212156304 0.914806074670513 2.248000000000000 133 124 97
-0.350856114560886 0.919835694905831 2.232000000000000 135 124 98
-0.348183823365754 0.924282573812115 2.215000000000000 135 124 98
-0.345039951371480 0.927286291918797 2.195000000000000 135 124 98
-0.342682047375776 0.932221309795655 2.180000000000000 133 122 96
-0.340166949780357 0.936568415780980 2.164000000000000 132 121 95
-0.337337464985511 0.939874132608238 2.146000000000000 133 122 96
-0.334665173790379 0.943436845327032 2.129000000000000 131 120 94
-0.332464463394388 0.948168679032931 2.115000000000000 130 119 93
-0.330106559398683 0.952302259722298 2.100000000000000 131 120 94
-0.327905849002692 0.956739371365700 2.086000000000000 133 122 96
-0.325390751407273 0.960104070476035 2.070000000000000 134 123 97
-0.323347234610996 0.964710278448475 2.057000000000000 134 123 97
-0.321146524215004 0.968707892279383 2.043000000000000 134 123 97
-0.318631426619586 0.971602070202223 2.027000000000000 133 122 96
-0.316587909823308 0.975784292049668 2.014000000000000 133 122 96
-0.314701586626744 0.980321750476148 2.002000000000000 133 122 96
-0.312500876230753 0.983745431869561 1.988000000000000 131 120 94
-0.310928940233617 0.989024386829112 1.978000000000000 131 120 94
-0.308885423437339 0.992684381864062 1.965000000000000 131 120 94
-0.306527519441634 0.995189235365946 1.950000000000000 128 119 92
-0.304484002645357 0.998570020025899 1.937000000000000 126 117 90
-0.302912066648220 1.003378453797955 1.927000000000000 128 119 92
-0.300554162652515 1.005454150612343 1.912000000000000 125 116 89
-0.299925388253660 1.013216123296103 1.908000000000000 126 117 90
-0.297095903458815 1.013429843748394 1.890000000000000 124 115 88
-0.815299548577148 -2.420703589836402 5.363000000000000 132 134 115
-0.825485092070466 -2.422869303915747 5.430000000000000 130 132 113
-0.834302428228862 -2.420372892206495 5.488000000000000 127 128 112
-0.847984501578096 -2.431224198717844 5.578000000000000 123 124 108
-0.862274667076185 -2.442867559663026 5.672000000000000 119 122 105
-0.872308187532290 -2.441624340821447 5.738000000000000 118 121 104
-0.878845178132480 -2.430030608422881 5.781000000000000 117 120 105
-0.881885638876754 -2.408443131279827 5.801000000000000 121 122 108
-0.885990260881525 -2.389518878333469 5.828000000000000 126 127 111
-0.890702975035150 -2.371934759445939 5.859000000000000 130 133 116
-0.893743435779424 -2.349633744677893 5.879000000000000 137 138 122
-0.896175804374843 -2.325547927476022 5.895000000000000 143 145 126
-0.899672334230759 -2.304021923220849 5.918000000000000 150 152 132
-0.902712794975033 -2.281105611515309 5.938000000000000 159 161 139
-0.906209324830948 -2.259119427197641 5.961000000000000 156 159 134
-0.910922038984574 -2.239885898872629 5.992000000000000 150 153 128
-0.920499490329038 -2.232128345143237 6.055000000000000 133 135 113
-0.928100642189723 -2.218994169628914 6.105000000000000 120 122 103
-0.936461909236478 -2.207134443094380 6.160000000000000 125 127 108
-0.941174623390103 -2.186230823081886 6.191000000000000 128 130 111
-0.942998899836667 -2.158395389696213 6.203000000000000 135 137 118
-0.944823176283232 -2.130435862810541 6.215000000000000 152 150 129
-0.947711613990292 -2.104715573996570 6.234000000000000 157 156 129
-0.950752074734567 -2.079131252041058 6.254000000000000 162 158 132
-0.953640512441627 -2.053012829914592 6.273000000000000 165 161 135
-0.956072881037047 -2.025731605087755 6.289000000000000 154 150 125
-0.957897157483611 -1.997017176077091 6.301000000000000 141 139 118
-0.959569410892962 -1.967866887582971 6.312000000000000 143 141 122
-0.961393687339527 -1.938909442134810 6.324000000000000 146 144 126
-0.963217963786091 -1.909827903186650 6.336000000000000 147 145 127
-0.965042240232656 -1.880622270738491 6.348000000000000 150 147 132
-0.965650332381511 -1.848963874922673 6.352000000000000 149 148 132
-0.966714493642007 -1.818121854119728 6.359000000000000 151 150 134
-0.967930677939716 -1.787488188050242 6.367000000000000 152 151 135
-0.969146862237426 -1.756771792980756 6.375000000000000 152 151 135
-0.969146862237426 -1.723809457043610 6.375000000000000 154 153 137
-0.969754954386281 -1.691908044790294 6.379000000000000 156 155 139
-0.970363046535136 -1.659965268036979 6.383000000000000 157 156 142
-0.970971138683990 -1.627981126783664 6.387000000000000 159 158 144
-0.971579230832845 -1.595955621030350 6.391000000000000 161 160 144
-0.971579230832845 -1.562910556093204 6.391000000000000 162 161 145
-0.972187322981700 -1.530823003589890 6.395000000000000 163 162 146
-0.972643392093341 -1.498459879040619 6.398000000000000 162 163 149
-0.973251484242196 -1.466294768099807 6.402000000000000 163 166 153
-0.973251484242196 -1.433192826975161 6.402000000000000 165 166 152
-0.972643392093341 -1.399216102416682 6.398000000000000 168 167 153
-0.973251484242196 -1.366988944725870 6.402000000000000 169 166 151
-0.973859576391051 -1.334720422535058 6.406000000000000 169 167 149
-0.973251484242196 -1.300785062476579 6.402000000000000 172 170 152
-0.973251484242196 -1.267683121351933 6.402000000000000 174 172 154
-0.973859576391051 -1.235352552411122 6.406000000000000 174 172 154
-0.974467668539906 -1.202980618970312 6.410000000000000 174 172 154
-0.974467668539906 -1.169837313345667 6.410000000000000 173 171 153
-0.975075760688761 -1.137403333154857 6.414000000000000 171 169 151
-0.975075760688761 -1.104239345280212 6.414000000000000 170 168 150
-0.976291944986471 -1.072411279273239 6.422000000000000 172 170 152
-0.976291944986471 -1.039205926898594 6.422000000000000 173 170 155
-0.977508129284180 -1.007253767391622 6.430000000000000 173 170 155
-0.978116221433035 -0.974612964700814 6.434000000000000 171 170 154
-0.978116221433035 -0.941345565576171 6.434000000000000 172 171 155
-0.978724313581890 -0.908642716135364 6.438000000000000 171 171 152
-0.978724313581890 -0.875354634760720 6.438000000000000 172 172 153
-0.979180382693531 -0.842458942273955 6.441000000000000 172 171 155
-0.978724313581890 -0.808778472011433 6.438000000000000 172 171 155
-0.978724313581890 -0.775490390636789 6.438000000000000 173 172 156
-0.979180382693531 -0.742548163087524 6.441000000000000 174 173 157
-0.979180382693531 -0.709244570025381 6.441000000000000 174 173 157
-0.979180382693531 -0.675940976963238 6.441000000000000 175 174 160
-0.979180382693531 -0.642637383901094 6.441000000000000 175 174 160
-0.979788474842386 -0.609712200272790 6.445000000000000 175 174 160
-0.978724313581890 -0.575761902388928 6.438000000000000 175 174 160
-0.979180382693531 -0.542726604714664 6.441000000000000 173 174 162
-0.979788474842386 -0.509739374336360 6.445000000000000 174 175 163
-0.981004659140096 -0.477006459891897 6.453000000000000 177 176 162
-0.982220843437805 -0.444190816447434 6.461000000000000 175 175 165
-0.982220843437805 -0.410783812135291 6.461000000000000 175 177 166
-0.982220843437805 -0.377376807823149 6.461000000000000 175 177 166
-0.981004659140096 -0.343543900643326 6.453000000000000 175 179 169
-0.979788474842386 -0.309793722463501 6.445000000000000 176 180 170
-0.979788474842386 -0.276469447151358 6.445000000000000 176 180 170
-0.979788474842386 -0.243145171839215 6.445000000000000 176 180 170
-0.978116221433035 -0.209462784834008 6.434000000000000 178 180 169
-0.977508129284180 -0.176085845525522 6.430000000000000 176 178 167
-0.976291944986471 -0.142661412783195 6.422000000000000 177 184 180
-0.975075760688761 -0.109319709040866 6.414000000000000 133 147 152
-0.973251484242196 -0.076013240864694 6.402000000000000 93 104 104
-0.967322585790861 -0.042649890697583 6.363000000000000 90 96 94
-0.958505249632466 -0.009660731969715 6.305000000000000 122 125 120
-0.944215084134377 0.022597661662747 6.211000000000000 135 137 128
-0.925820296631518 0.053646149473661 6.090000000000000 132 134 125
-0.904385048384384 0.083163772078806 5.949000000000000 135 137 128
-0.885990260881525 0.111606296389748 5.828000000000000 137 139 130
-0.868203565527520 0.138894826891860 5.711000000000000 137 137 129
-0.851633054471225 0.165209374901296 5.602000000000000 142 142 132
-0.834302428228862 0.190223431765550 5.488000000000000 142 141 129
-0.818340009321422 0.214417090778666 5.383000000000000 150 149 137
-0.802225567376768 0.237479928837755 5.277000000000000 154 153 137
-0.787479332767038 0.259898168170705 5.180000000000000 150 148 129
-0.772581075120094 0.281257974424626 5.082000000000000 150 148 129
-0.758899001770860 0.302088466560868 4.992000000000000 150 148 127
-0.744608836272771 0.321725517130965 4.898000000000000 153 151 130
-0.731534855072391 0.340957347083380 4.812000000000000 157 155 134
-0.718004804760371 0.359071761673690 4.723000000000000 157 156 132
-0.706147007857701 0.377158980570932 4.645000000000000 154 153 129
-0.693529095768963 0.394007755072992 4.562000000000000 148 147 123
-0.681671298866293 0.410455905657751 4.484000000000000 156 152 129
-0.670421594112478 0.426484282308673 4.410000000000000 133 130 115
-0.660388073656373 0.442562447841908 4.344000000000000 98 99 97
-0.649594438014199 0.457422851229960 4.273000000000000 95 97 98
-0.640169009706949 0.472559016016862 4.211000000000000 119 119 111
-0.630135489250844 0.486584468237619 4.145000000000000 144 139 121
-0.621166130055235 0.500785335074149 4.086000000000000 141 136 116
-0.612196770859626 0.514376075535686 4.027000000000000 141 136 118
-0.603379434701230 0.527489592013767 3.969000000000000 142 137 117
-0.594714121580049 0.540141396195893 3.912000000000000 142 138 115
-0.586352854533294 0.552490243286100 3.857000000000000 140 136 113
-0.578447656598181 0.564715570738426 3.805000000000000 138 134 111
-0.570390435625854 0.576249575049220 3.752000000000000 137 133 110
-0.562637260727955 0.587553010143096 3.701000000000000 140 135 112
-0.555188131904483 0.598656899395052 3.652000000000000 138 133 110
-0.547891026118225 0.609423169851051 3.604000000000000 139 134 111
-0.540745943369180 0.619867333198593 3.557000000000000 139 134 111
-0.533904906694563 0.630184338579215 3.512000000000000 131 126 103
-0.527367916094374 0.640405209367916 3.469000000000000 129 123 103
-0.520830925494184 0.650181411781623 3.426000000000000 131 125 105
-0.514293934893994 0.659512945820333 3.383000000000000 131 126 103
-0.508060990368232 0.668800050892123 3.342000000000000 129 124 101
-0.501828045842470 0.677663169838918 3.301000000000000 127 121 101
-0.495899147391135 0.686523224318791 3.262000000000000 126 121 98
-0.490274295014227 0.695411237706742 3.225000000000000 122 117 94
-0.484345396562892 0.703475025561624 3.186000000000000 125 120 97
-0.478872567223199 0.711813427091120 3.150000000000000 128 123 100
-0.473551760920719 0.720010691199658 3.115000000000000 126 121 98
-0.468230954618239 0.727846015933199 3.080000000000000 126 119 97
-0.462910148315759 0.735319401291744 3.045000000000000 129 122 98
-0.458197434162134 0.743417466341439 3.014000000000000 133 126 102
-0.453028650896867 0.750439480529029 2.980000000000000 134 127 103
-0.448315936743242 0.757880884141231 2.949000000000000 136 129 105
-0.443603222589617 0.765001712878437 2.918000000000000 136 129 105
-0.439194554510419 0.772336640773719 2.889000000000000 137 130 106
-0.434329817319581 0.778554153306896 2.857000000000000 137 130 106
-0.429921149240383 0.785273784264684 2.828000000000000 139 129 106
-0.425816527235613 0.792259220005549 2.801000000000000 140 130 106
-0.421559882193629 0.798677426104880 2.773000000000000 141 131 107
-0.417455260188858 0.805099270533251 2.746000000000000 139 130 103
-0.413350638184088 0.811241904586624 2.719000000000000 136 126 102
-0.409093993142104 0.816801797310965 2.691000000000000 134 124 100
-0.405293417211761 0.822998243084917 2.666000000000000 135 125 101
-0.401492841281418 0.828936160733871 2.641000000000000 133 123 99
-0.397540242313862 0.834296507616292 2.615000000000000 101 96 79
-0.393739666383519 0.839712198452752 2.590000000000000 82 82 72
-0.389787067415962 0.844539977397679 2.564000000000000 85 85 77
-0.386290537560047 0.850102550079716 2.541000000000000 84 84 76
-0.382489961629704 0.854747827103684 2.516000000000000 83 83 75
-0.379145454811002 0.860169262364762 2.494000000000000 83 83 75
-0.375952971029514 0.865713258892377 2.473000000000000 84 84 76
-0.372304418136385 0.869974382057889 2.449000000000000 82 84 75
-0.369111934354897 0.875068539648010 2.428000000000000 95 93 83
-0.365767427536196 0.879579955909097 2.406000000000000 130 124 104
-0.362574943754708 0.884234615686722 2.385000000000000 139 130 103
-0.359534483010433 0.889048030668385 2.365000000000000 137 128 101
-0.356646045303373 0.894035712541585 2.346000000000000 136 127 100
-0.353605584559098 0.898440653085752 2.326000000000000 134 125 98
-0.350717146852038 0.903030201646457 2.307000000000000 134 125 98
-0.347676686107764 0.907026667753128 2.287000000000000 132 123 96
-0.344788248400703 0.911218083001337 2.268000000000000 131 122 95
-0.342051833730856 0.915619959078583 2.250000000000000 134 125 98
-0.339315419061009 0.919835694905831 2.232000000000000 136 127 100
-0.336731027428376 0.924282573812115 2.215000000000000 135 124 98
-0.333994612758529 0.928131199701867 2.197000000000000 133 122 96
-0.331714267200324 0.933076558703725 2.182000000000000 130 121 94
-0.328977852530477 0.936568415780980 2.164000000000000 130 119 93
-0.326545483935057 0.940750063766307 2.148000000000000 132 121 95
-0.323961092302424 0.944323117610101 2.131000000000000 133 122 96
-0.321528723707005 0.948168679032931 2.115000000000000 131 120 94
-0.319248378148799 0.952302259722298 2.100000000000000 129 118 92
-0.317120055627807 0.956739371365700 2.086000000000000 133 122 96
-0.314687687032388 0.960104070476035 2.070000000000000 135 124 98
-0.312711387548609 0.964710278448475 2.057000000000000 133 122 96
-0.310583065027617 0.968707892279383 2.043000000000000 133 122 96
-0.308454742506625 0.972560730360291 2.029000000000000 134 123 97
-0.306478443022847 0.976753293332736 2.016000000000000 135 124 98
-0.304350120501855 0.980321750476148 2.002000000000000 134 123 97
-0.302373821018077 0.984240273636095 1.989000000000000 133 122 96
-0.300701567608726 0.989024386829112 1.978000000000000 134 123 97
-0.299029314199375 0.993694747647130 1.967000000000000 134 123 97
-0.296748968641170 0.996209942274013 1.952000000000000 130 119 93
-0.294620646120178 0.999085544042433 1.938000000000000 133 122 96
-0.293100415748040 1.003899148376988 1.928000000000000 131 120 94
-0.290820070189835 1.005980015753877 1.913000000000000 128 117 91
-0.290364001078193 1.014278194704170 1.910000000000000 125 116 89
-0.287627586408347 1.014502256281461 1.892000000000000 124 115 88
-0.788157231788800 -2.422509074520225 5.367000000000000 133 135 116
-0.797996347594622 -2.424654106349570 5.434000000000000 132 134 115
-0.807688610925731 -2.425665252757967 5.500000000000000 129 130 114
-0.820317923751115 -2.434711074585492 5.586000000000000 126 127 111
-0.835296876171920 -2.449758582398323 5.688000000000000 122 125 108
-0.848366746421445 -2.458219556801237 5.777000000000000 119 122 105
-0.855268812732992 -2.448105563648999 5.824000000000000 117 120 105
-0.859821239449119 -2.430862701886466 5.855000000000000 118 119 105
-0.863345698842249 -2.410429218552241 5.879000000000000 122 123 107
-0.867898125558376 -2.392581400977215 5.910000000000000 127 130 113
-0.871422584951507 -2.371615349705497 5.934000000000000 134 135 119
-0.873625372072213 -2.346850656582673 5.949000000000000 140 142 123
-0.875975011667634 -2.322320171005807 5.965000000000000 148 150 130
-0.879940028484905 -2.301849919871966 5.992000000000000 156 158 136
-0.883464487878036 -2.279963508475257 6.016000000000000 164 167 142
-0.887429504695308 -2.258950348278921 6.043000000000000 164 167 142
-0.894918980905710 -2.246505389810551 6.094000000000000 146 148 126
-0.905198654135674 -2.240438994527866 6.164000000000000 86 88 69
-0.924730033272605 -2.256221686390472 6.297000000000000 74 76 57
-0.924730033272605 -2.223662654328321 6.297000000000000 75 77 58
-0.928695050089877 -2.200498540132009 6.324000000000000 72 74 55
-0.931044689685297 -2.173284532617672 6.340000000000000 97 95 74
-0.931632099584152 -2.141853641551851 6.344000000000000 117 116 89
-0.934422296603714 -2.115368109487888 6.363000000000000 123 119 93
-0.936184526300279 -2.086395152352227 6.375000000000000 125 121 95
-0.937359346097989 -2.056009673282738 6.383000000000000 117 113 88
-0.938534165895699 -2.025541465213250 6.391000000000000 102 100 79
-0.939562133218696 -1.994678762160306 6.398000000000000 102 100 81
-0.941324362915261 -1.965276648337149 6.410000000000000 103 101 83
-0.943086592611826 -1.935750441013994 6.422000000000000 104 102 84
-0.943086592611826 -1.902545088639349 6.422000000000000 104 101 86
-0.944261412409536 -1.871668406132366 6.430000000000000 103 102 86
-0.945436232207246 -1.840708994625383 6.438000000000000 103 102 86
-0.946464199530243 -1.809386111509944 6.445000000000000 103 102 86
-0.947051609429098 -1.777164124381631 6.449000000000000 103 102 86
-0.947639019327953 -1.744900772753320 6.453000000000000 105 104 88
-0.948813839125663 -1.713656980308840 6.461000000000000 105 104 88
-0.949401249024518 -1.681290217430530 6.465000000000000 104 103 89
-0.949988658923373 -1.648882090052219 6.469000000000000 106 105 91
-0.951163478721084 -1.617431475107742 6.477000000000000 107 106 90
-0.951604036145225 -1.584675387808475 6.480000000000000 106 105 89
-0.952191446044080 -1.552127655242666 6.484000000000000 106 105 89
-0.952778855942935 -1.519538558176858 6.488000000000000 103 104 90
-0.952778855942935 -1.485991948677217 6.488000000000000 100 103 90
-0.953366265841790 -1.453340804861410 6.492000000000000 101 102 88
-0.953366265841790 -1.419773513111769 6.492000000000000 102 101 87
-0.954541085639500 -1.387914423729796 6.500000000000000 103 100 85
-0.955128495538355 -1.355139186413990 6.504000000000000 105 103 85
-0.955128495538355 -1.321509847914350 6.504000000000000 108 106 88
-0.956303315336065 -1.289464618282379 6.512000000000000 107 105 87
-0.956890725234920 -1.256565287466574 6.516000000000000 107 105 87
-0.956890725234920 -1.222873902216935 6.516000000000000 107 105 87
-0.957478135133775 -1.189912524651131 6.520000000000000 107 105 87
-0.957918692557917 -1.156732451226868 6.523000000000000 105 103 85
-0.957918692557917 -1.123004872039729 6.523000000000000 104 102 84
-0.959093512355627 -1.090613214720262 6.531000000000000 104 102 84
-0.959680922254482 -1.057491549716959 6.535000000000000 104 101 86
-0.960855742052192 -1.024955116647494 6.543000000000000 105 102 87
-0.961443151951047 -0.991730040394192 6.547000000000000 104 103 87
-0.962030561849902 -0.958463599640891 6.551000000000000 96 95 79
-0.962617971748757 -0.925155794387591 6.555000000000000 95 95 76
-0.962617971748757 -0.891262757200454 6.555000000000000 96 96 77
-0.963645939071754 -0.858285294085032 6.562000000000000 100 99 83
-0.964233348970609 -0.824858565894233 6.566000000000000 101 100 84
-0.965408168768319 -0.791872293887272 6.574000000000000 102 101 85
-0.965408168768319 -0.757881016012636 6.574000000000000 102 101 85
-0.965995578667174 -0.724330194321838 6.578000000000000 102 101 85
-0.967170398464884 -0.691157782064879 6.586000000000000 103 102 88
-0.967757808363739 -0.657503549124082 6.590000000000000 103 102 88
-0.967170398464884 -0.623051132815608 6.586000000000000 104 103 89
-0.967170398464884 -0.588997808190973 6.586000000000000 105 104 90
-0.968932628161450 -0.555955618367855 6.598000000000000 103 104 92
-0.968345218262594 -0.521523884309381 6.594000000000000 104 105 93
-0.968345218262594 -0.487429195184746 6.594000000000000 110 109 95
-0.968345218262594 -0.453334506060111 6.594000000000000 124 124 114
-0.967757808363739 -0.418985501001636 6.590000000000000 120 122 111
-0.967757808363739 -0.384911494127001 6.590000000000000 117 119 108
-0.966582988566029 -0.350411584384685 6.582000000000000 117 121 111
-0.965408168768319 -0.315994403642367 6.574000000000000 117 121 111
-0.964820758869464 -0.281831538833890 6.570000000000000 117 121 111
-0.964233348970609 -0.247710038525413 6.566000000000000 117 121 111
-0.963645939071754 -0.213629902716935 6.562000000000000 110 112 101
-0.965408168768319 -0.180029292143823 6.574000000000000 116 118 107
-0.964233348970609 -0.145860298401504 6.566000000000000 117 124 120
-0.961443151951047 -0.111586550528617 6.547000000000000 98 112 117
-0.943086592611826 -0.043045355659261 6.422000000000000 113 119 117
-0.928695050089877 -0.009689844405468 6.324000000000000 119 122 117
-0.913275540244931 0.022626768295061 6.219000000000000 119 121 112
-0.895506390804565 0.053716620605975 6.098000000000000 122 124 115
-0.875387601768779 0.083331525527276 5.961000000000000 127 129 120
-0.857031042429557 0.111759496522061 5.836000000000000 131 133 124
-0.839261892989191 0.138992109208016 5.715000000000000 125 125 117
-0.823108120770677 0.165297848325913 5.605000000000000 136 136 126
-0.806513791128021 0.190362078581706 5.492000000000000 134 133 121
-0.791094281283075 0.214576419844822 5.387000000000000 143 142 130
-0.775527918963415 0.237659940153910 5.281000000000000 143 142 126
-0.761283228916180 0.260098861736860 5.184000000000000 138 136 117
-0.746891686394231 0.281479350240781 5.086000000000000 138 136 117
-0.733674963669991 0.302330524627022 4.996000000000000 138 136 115
-0.719870831046897 0.321988257447119 4.902000000000000 142 140 119
-0.706654108322658 0.340957347083380 4.812000000000000 144 142 121
-0.694171647971987 0.359375866489844 4.727000000000000 147 146 122
-0.682129745045458 0.377158980570932 4.645000000000000 142 141 117
-0.670528399543070 0.394353224389145 4.566000000000000 136 135 111
-0.659073906515396 0.410822057223905 4.488000000000000 143 139 116
-0.648206823386577 0.426871116124826 4.414000000000000 133 130 115
-0.637927150156614 0.442562447841908 4.344000000000000 99 100 98
-0.628088034350791 0.457851049546112 4.277000000000000 92 94 95
-0.618983180918537 0.473007896583014 4.215000000000000 101 101 93
-0.609144065112715 0.486936640349733 4.148000000000000 130 125 107
-0.600626621579316 0.501275580140301 4.090000000000000 131 126 106
-0.591374915672349 0.514376075535686 4.027000000000000 131 126 108
-0.583151177088378 0.527755396796843 3.971000000000000 131 126 106
-0.574486881080265 0.540141396195893 3.912000000000000 131 127 104
-0.566703699920436 0.552776730319175 3.859000000000000 130 126 103
-0.559067371235319 0.565012398896501 3.807000000000000 128 124 101
-0.551577895024917 0.576863913615371 3.756000000000000 128 124 101
-0.543794713865087 0.587870520551171 3.703000000000000 132 127 104
-0.536598942604113 0.598984750928127 3.654000000000000 132 127 104
-0.529403171343138 0.609592266180089 3.605000000000000 135 130 107
-0.522647957506305 0.620215866981668 3.559000000000000 139 134 111
-0.515745891194758 0.630184338579215 3.512000000000000 133 128 105
-0.509724939731493 0.640774425400991 3.471000000000000 129 123 103
-0.503116578369374 0.650181411781623 3.426000000000000 129 123 103
-0.496801921956681 0.659512945820333 3.383000000000000 129 124 101
-0.490780970493417 0.668800050892123 3.342000000000000 124 119 96
-0.485053723979580 0.678073750371992 3.303000000000000 122 116 96
-0.479032772516315 0.686523224318791 3.262000000000000 121 116 93
-0.473599230951906 0.695411237706742 3.225000000000000 120 115 92
-0.468165689387496 0.703916629469698 3.188000000000000 123 118 95
-0.462879000297801 0.712265372124194 3.152000000000000 123 118 95
-0.457445458733391 0.720010691199658 3.115000000000000 122 117 94
-0.452305622118409 0.727846015933199 3.080000000000000 124 117 95
-0.447459490452855 0.735802369699817 3.047000000000000 124 117 93
-0.442613358787301 0.743417466341439 3.014000000000000 129 122 98
-0.437914079596460 0.750943131187102 2.982000000000000 135 128 104
-0.433361652880333 0.758394875924304 2.951000000000000 135 128 104
-0.428515521214779 0.765001712878437 2.918000000000000 136 129 105
-0.424256799448079 0.772336640773719 2.889000000000000 135 128 104
-0.419851225206666 0.779099168464968 2.859000000000000 137 130 106
-0.415592503439967 0.785829140547757 2.830000000000000 137 127 104
-0.411333781673268 0.792259220005549 2.801000000000000 138 128 104
-0.407515617330710 0.799253464637953 2.775000000000000 138 128 104
-0.403550600513438 0.805685650191323 2.748000000000000 135 126 99
-0.399291878746739 0.811241904586624 2.719000000000000 133 123 99
-0.395473714404181 0.817408859219037 2.693000000000000 134 124 100
-0.391802402536336 0.823615646117989 2.668000000000000 135 125 101
-0.388131090668492 0.829563904891943 2.643000000000000 135 125 101
-0.384019221376507 0.834296507616292 2.615000000000000 123 118 101
-0.380347909508662 0.839712198452752 2.590000000000000 88 88 78
-0.376823450115532 0.845198744930750 2.566000000000000 84 84 76
-0.373445843197115 0.850771658737787 2.543000000000000 84 84 76
-0.369774531329271 0.855427276886755 2.518000000000000 84 84 76
-0.366250071936141 0.860169262364762 2.494000000000000 85 85 77
-0.363166169967151 0.865713258892377 2.473000000000000 85 85 77
-0.359935415523448 0.870684855215960 2.451000000000000 83 85 76
-0.356851513554459 0.875789353931080 2.430000000000000 86 84 74
-0.353620759110756 0.880311111317168 2.408000000000000 106 100 80
-0.350536857141767 0.884976112219793 2.387000000000000 135 126 99
-0.347306102698064 0.889048030668385 2.365000000000000 137 128 101
-0.344515905678503 0.894035712541585 2.346000000000000 135 126 99
-0.341578856184227 0.898440653085752 2.326000000000000 132 123 96
-0.338788659164666 0.903030201646457 2.307000000000000 134 125 98
-0.335851609670390 0.907026667753128 2.287000000000000 134 125 98
-0.333355117600256 0.912021626284407 2.270000000000000 133 124 97
-0.330418068105981 0.915619959078583 2.250000000000000 135 126 99
-0.327774723561133 0.919835694905831 2.232000000000000 133 124 97
-0.325571936440426 0.925117140470185 2.217000000000000 134 123 97
-0.322928591895579 0.928976107484936 2.199000000000000 133 122 96
-0.320432099825445 0.933076558703725 2.182000000000000 130 121 94
-0.318082460230024 0.937434005814050 2.166000000000000 131 120 94
-0.315439115685176 0.940750063766307 2.148000000000000 133 122 96
-0.313236328564470 0.945209389893170 2.133000000000000 133 122 96
-0.310886688969050 0.949065292441000 2.117000000000000 132 121 95
-0.308683901848343 0.953209214255366 2.102000000000000 131 120 94
-0.306627967202350 0.957656667023769 2.088000000000000 132 121 95
-0.304278327606930 0.961031707259104 2.072000000000000 133 122 96
-0.302369245435651 0.965648256356544 2.059000000000000 132 121 95
-0.300019605840231 0.968707892279383 2.043000000000000 133 122 96
-0.297963671194238 0.972560730360291 2.029000000000000 134 123 97
-0.296348293972386 0.977722294615804 2.018000000000000 136 125 99
-0.294292359326394 0.981301092884216 2.004000000000000 135 124 98
-0.292236424680401 0.984735115402629 1.990000000000000 136 125 99
-0.290621047458549 0.989524399158146 1.979000000000000 137 126 100
-0.289005670236698 0.994199930538664 1.968000000000000 137 126 100
-0.286949735590705 0.997230649182081 1.954000000000000 134 123 97
-0.284893800944712 1.000116592075500 1.940000000000000 130 119 93
-0.283425276197575 1.004940537535056 1.930000000000000 130 119 93
-0.281075636602154 1.006505880895410 1.914000000000000 128 117 91
-0.280635079178013 1.014809230408204 1.911000000000000 126 117 90
-0.277991734633165 1.015038462547994 1.893000000000000 126 117 90
-0.760406822851597 -2.422509074520225 5.367000000000000 135 137 118
-0.770466238618778 -2.426438908783394 5.438000000000000 133 135 116
-0.781517427771456 -2.432721733493263 5.516000000000000 131 133 114
-0.793135344572990 -2.439941388386965 5.598000000000000 128 130 111
-0.808578673004297 -2.457941671896489 5.707000000000000 125 126 110
-0.823030228050107 -2.471836144271834 5.809000000000000 121 124 107
-0.830681051309654 -2.464499127691291 5.863000000000000 120 123 108
-0.835639918237138 -2.448715322925085 5.898000000000000 119 120 106
-0.840173739427980 -2.431339558771014 5.930000000000000 120 121 107
-0.843999151057753 -2.411608698074665 5.957000000000000 122 125 110
-0.846832789302030 -2.388800968181624 5.977000000000000 130 133 118
-0.850091473282948 -2.366969900738954 6.000000000000000 137 140 125
-0.852358383878369 -2.342175716474591 6.016000000000000 146 147 131
-0.856750523156997 -2.322978382087078 6.047000000000000 153 155 135
-0.859442479489060 -2.298912673273090 6.066000000000000 162 164 142
-0.863409573031047 -2.278014797685214 6.094000000000000 171 172 147
-0.871060396290594 -2.266412067042217 6.148000000000000 172 172 150
-0.898830051084503 -2.273061835550446 6.344000000000000 82 83 67
-0.906480874344050 -2.259328833157471 6.398000000000000 77 78 66
-0.907614329641760 -2.229031253650482 6.406000000000000 70 71 59
-0.909314512588326 -2.200022102577321 6.418000000000000 81 80 66
-0.911581423183748 -2.172239333187990 6.434000000000000 102 100 79
-0.914273379515810 -2.145288450499032 6.453000000000000 108 104 81
-0.915406834813521 -2.114541032054547 6.461000000000000 112 108 85
-0.915973562462376 -2.082422456176234 6.465000000000000 117 113 90
-0.917107017760087 -2.051530261981751 6.473000000000000 121 117 94
-0.918098791145584 -2.020243572803811 6.480000000000000 123 119 94
-0.919232246443294 -1.989191091171829 6.488000000000000 125 121 96
-0.920365701741005 -1.958055880539848 6.496000000000000 127 122 97
-0.920932429389860 -1.925652923724038 6.500000000000000 128 123 98
-0.922065884687571 -1.894372937342059 6.508000000000000 128 123 98
-0.922632612336426 -1.861866569276249 6.512000000000000 130 125 100
-0.923199339985281 -1.829318836710441 6.516000000000000 130 125 100
-0.923766067634136 -1.796729739644633 6.520000000000000 131 126 101
-0.924757841019633 -1.764910482529198 6.527000000000000 131 126 101
-0.925891296317344 -1.733284068459723 6.535000000000000 131 126 101
-0.926458023966199 -1.700534683956416 6.539000000000000 131 126 101
-0.927024751615054 -1.667743934953110 6.543000000000000 130 125 100
-0.928158206912765 -1.635910698383637 6.551000000000000 130 125 100
-0.929291662210476 -1.603994732814165 6.559000000000000 130 125 100
-0.929716707947117 -1.570799147702402 6.562000000000000 130 125 100
-0.930850163244828 -1.538743576945431 6.570000000000000 130 125 100
-0.930850163244828 -1.504772981320795 6.570000000000000 128 123 98
-0.931983618542538 -1.472593317063825 6.578000000000000 128 123 98
-0.932550346191394 -1.439456140373023 6.582000000000000 128 123 98
-0.933117073840249 -1.406277599182221 6.586000000000000 127 122 97
-0.934250529137960 -1.373891112425254 6.594000000000000 125 120 95
-0.935383984435670 -1.341421896668287 6.602000000000000 124 119 94
-0.935809030172312 -1.307879883869028 6.605000000000000 122 117 92
-0.935809030172312 -1.273728318556894 6.605000000000000 121 116 91
-0.936942485470022 -1.241078133112429 6.613000000000000 120 115 90
-0.937509213118877 -1.207615210984130 6.617000000000000 120 115 90
-0.938075940767733 -1.174110924355832 6.621000000000000 119 114 89
-0.938642668416588 -1.140565273227534 6.625000000000000 118 113 88
-0.939776123714299 -1.107646218533073 6.633000000000000 118 113 90
-0.941476306660865 -1.075291713522448 6.645000000000000 107 102 82
-0.942468080046361 -1.042029869469529 6.652000000000000 115 110 90
-0.943601535344072 -1.008847116087570 6.660000000000000 134 129 109
-0.944734990641783 -0.975581633705612 6.668000000000000 90 85 65
-0.945868445939493 -0.942233422323655 6.676000000000000 99 95 72
-0.945868445939493 -0.907714747074024 6.676000000000000 103 99 76
-0.947568628886059 -0.874765627375906 6.688000000000000 104 99 79
-0.948560402271556 -0.841064285510492 6.695000000000000 103 98 78
-0.949693857569266 -0.807411010941038 6.703000000000000 103 99 76
-0.950260585218122 -0.773213868937747 6.707000000000000 103 99 76
-0.950827312866977 -0.738975362434456 6.711000000000000 102 98 73
-0.951394040515832 -0.704695491431166 6.715000000000000 101 97 72
-0.951960768164688 -0.670374255927877 6.719000000000000 100 96 71
-0.951960768164688 -0.635633246490749 6.719000000000000 101 97 72
-0.951960768164688 -0.600892237053621 6.719000000000000 99 95 70
-0.953094223462398 -0.566825317484171 6.727000000000000 98 94 69
-0.952527495813543 -0.531726580863204 6.723000000000000 97 93 68
-0.951960768164688 -0.496669208742237 6.719000000000000 95 91 66
-0.951960768164688 -0.461928199305109 6.719000000000000 96 92 67
-0.951960768164688 -0.427187189867981 6.719000000000000 90 89 65
-0.951394040515832 -0.392212546747012 6.715000000000000 88 87 63
-0.951960768164688 -0.357705170993725 6.719000000000000 85 83 64
-0.953094223462398 -0.323348699924278 6.727000000000000 84 82 63
-0.953094223462398 -0.288566325987151 6.727000000000000 82 80 61
-0.953519269199040 -0.253897130562904 6.730000000000000 79 77 58
-0.952527495813543 -0.218871355679054 6.723000000000000 74 72 53
-0.953519269199040 -0.184301359313649 6.730000000000000 90 88 67
-0.949127129920411 -0.148814824701747 6.699000000000000 93 93 74
-0.928158206912765 -0.077782371275322 6.551000000000000 110 111 99
-0.913706651866955 -0.043226331150199 6.449000000000000 116 117 105
-0.898263323435648 -0.009714360140839 6.340000000000000 111 112 100
-0.881119812057775 0.022626768295061 6.219000000000000 111 112 100
-0.863976300679902 0.053716620605975 6.098000000000000 116 117 105
-0.845132606355464 0.083387443343432 5.965000000000000 120 120 110
-0.827989094977591 0.111912696654374 5.844000000000000 128 130 121
-0.810845583599718 0.139186673840328 5.723000000000000 118 118 108
-0.794127117958487 0.165297848325913 5.605000000000000 136 136 126
-0.778683789527180 0.190500725397861 5.496000000000000 130 130 120
-0.763807188744729 0.214735748910977 5.391000000000000 136 135 123
-0.749355633698918 0.238019962786221 5.289000000000000 138 137 121
-0.735045760565322 0.260299555303015 5.188000000000000 131 129 110
-0.721160933168367 0.281700726056936 5.090000000000000 135 133 112
-0.708409561069123 0.302572582693177 5.000000000000000 139 137 116
-0.695091461321024 0.322250997763273 4.906000000000000 140 138 117
-0.682340089221779 0.341240769649535 4.816000000000000 140 138 117
-0.670155444771391 0.359603945101960 4.730000000000000 143 138 118
-0.658537527969857 0.377402570870548 4.648000000000000 136 131 111
-0.646919611168323 0.394353224389145 4.566000000000000 128 123 103
-0.636435149664500 0.411188208790058 4.492000000000000 134 129 109
-0.625383960511822 0.426871116124826 4.414000000000000 131 125 108
-0.616032954305709 0.442969963908061 4.348000000000000 104 104 96
-0.606540266187383 0.458279247862265 4.281000000000000 91 96 94
-0.597189259981271 0.473007896583014 4.215000000000000 96 101 99
-0.587696571862944 0.486936640349733 4.148000000000000 113 113 105
-0.580045748603398 0.501765825206453 4.094000000000000 128 123 106
-0.571119788133927 0.514887002851838 4.031000000000000 128 123 106
-0.562902237225525 0.528021201579919 3.973000000000000 127 121 103
-0.554826368229337 0.540693688012044 3.916000000000000 127 122 104
-0.547033863057577 0.553063217352251 3.861000000000000 126 121 103
-0.539666403622458 0.565309227054577 3.809000000000000 124 119 101
-0.532440626099553 0.577171082898446 3.758000000000000 122 117 99
-0.525214848576648 0.588505541367322 3.707000000000000 128 123 105
-0.517989071053743 0.599312602461202 3.656000000000000 131 126 106
-0.511046657355265 0.609930458838164 3.607000000000000 133 128 108
-0.504529289393429 0.620564400764743 3.561000000000000 134 130 107
-0.497870239519380 0.630543213487290 3.514000000000000 132 126 106
-0.491777917294185 0.640774425400991 3.471000000000000 128 122 102
-0.485685595068991 0.650560968939697 3.428000000000000 128 122 102
-0.479593272843796 0.659902844103408 3.385000000000000 128 123 100
-0.473500950618602 0.668800050892123 3.342000000000000 122 116 96
-0.467975356042263 0.678073750371992 3.303000000000000 119 113 93
-0.462449761465924 0.686944145976865 3.264000000000000 119 113 93
-0.457207530714012 0.695842500489816 3.227000000000000 120 114 94
-0.451823618049887 0.704137431423735 3.189000000000000 123 117 97
-0.446864751122403 0.712717317157268 3.154000000000000 123 117 97
-0.441622520370491 0.720472977357731 3.117000000000000 122 116 96
-0.436663653443007 0.728318643216272 3.082000000000000 123 116 94
-0.431704786515524 0.735802369699817 3.047000000000000 123 117 97
-0.427312647236895 0.743910775874513 3.016000000000000 125 118 96
-0.422495462221625 0.750943131187102 2.982000000000000 133 126 102
-0.418103322942996 0.758394875924304 2.951000000000000 134 127 103
-0.413711183664368 0.765526045786510 2.920000000000000 135 128 104
-0.409602408210167 0.772871314806792 2.891000000000000 133 126 102
-0.405351950843752 0.779644183623041 2.861000000000000 136 129 105
-0.401243175389551 0.786384496830830 2.832000000000000 136 126 103
-0.397417763759778 0.793390614821694 2.805000000000000 136 126 102
-0.393167306393363 0.799253464637953 2.775000000000000 135 125 101
-0.389341894763590 0.805685650191323 2.748000000000000 133 124 97
-0.385516483133817 0.811838625369697 2.721000000000000 130 123 99
-0.381549389591830 0.817408859219037 2.693000000000000 132 125 101
-0.378290705610912 0.824233049151060 2.670000000000000 135 125 101
-0.374465293981138 0.829563904891943 2.643000000000000 135 125 101
-0.370781564263579 0.834934592899364 2.617000000000000 138 128 104
-0.367239516458233 0.840360624860824 2.592000000000000 112 107 89
-0.363839150565102 0.845857512463822 2.568000000000000 87 86 74
-0.360297102759756 0.850771658737787 2.543000000000000 84 84 76
-0.357038418778838 0.856106726669827 2.520000000000000 85 85 77
-0.353638052885706 0.860859053272833 2.496000000000000 84 86 77
-0.350662732729216 0.866413390925449 2.475000000000000 84 84 76
-0.347545730660512 0.871395328374031 2.453000000000000 83 83 75
-0.344570410504021 0.876510168214151 2.432000000000000 84 84 76
-0.341170044610890 0.880311111317168 2.408000000000000 84 84 76
-0.338478088278827 0.885717608752863 2.389000000000000 114 109 92
-0.335361086210123 0.889799868326456 2.367000000000000 134 127 102
-0.332669129878060 0.894797891324656 2.348000000000000 133 124 97
-0.329552127809356 0.898440653085752 2.326000000000000 132 123 96
-0.327143535301721 0.903813062679527 2.309000000000000 134 125 98
-0.324309897057445 0.907819869911199 2.289000000000000 132 123 96
-0.321759622637596 0.912423397925942 2.271000000000000 133 124 97
-0.319067666305533 0.916433843486653 2.252000000000000 134 125 98
-0.316517391885684 0.920659920438900 2.234000000000000 132 123 96
-0.314108799378049 0.925117140470185 2.217000000000000 132 123 96
-0.311558524958200 0.928976107484936 2.199000000000000 132 121 95
-0.309433296274993 0.933931807611794 2.184000000000000 130 119 93
-0.306883021855144 0.937434005814050 2.166000000000000 130 119 93
-0.304616111259723 0.941625994924376 2.150000000000000 130 119 93
-0.302207518752088 0.945209389893170 2.133000000000000 131 120 94
-0.299940608156667 0.949065292441000 2.117000000000000 132 123 96
-0.298098743297887 0.954116168788435 2.104000000000000 133 122 96
-0.296115196526893 0.958573962681838 2.090000000000000 129 118 92
-0.293848285931472 0.961959344042173 2.074000000000000 128 117 91
-0.291723057248265 0.965648256356544 2.059000000000000 133 122 96
-0.289739510477271 0.969656211312451 2.045000000000000 135 124 98
-0.287755963706278 0.973519390518360 2.031000000000000 136 125 99
-0.285914098847498 0.977722294615804 2.018000000000000 138 127 101
-0.284213915900932 0.982280435292284 2.006000000000000 139 128 102
-0.282230369129939 0.985724798935697 1.992000000000000 140 129 103
-0.280813550007800 0.991024436145247 1.982000000000000 139 128 102
-0.279113367061234 0.995210296321731 1.970000000000000 138 127 101
-0.276988138378027 0.997741002636115 1.955000000000000 136 125 99
-0.275004591607034 1.000632116092034 1.941000000000000 135 124 98
-0.273729454397109 1.005981926693123 1.932000000000000 133 122 96
-0.271462543801688 1.007557611178478 1.916000000000000 133 122 96
-0.271179179977260 1.016402337520305 1.914000000000000 131 120 94
-0.268487223645198 1.016110875081061 1.895000000000000 131 122 95
-0.732110368515538 -2.420703589836402 5.363000000000000 135 137 118
-0.741802674345224 -2.424654106349570 5.434000000000000 134 136 117
-0.752450559622906 -2.430957613309439 5.512000000000000 133 135 116
-0.764736581097156 -2.441684826320789 5.602000000000000 130 132 113
-0.779070272817113 -2.457941671896489 5.707000000000000 127 128 112
-0.793950009935926 -2.474814772781027 5.816000000000000 123 126 109
-0.803096270366756 -2.472906083610416 5.883000000000000 122 125 110
-0.809512303803308 -2.462000994395686 5.930000000000000 121 122 108
-0.814290201043294 -2.445689792254486 5.965000000000000 120 121 107
-0.817976007485569 -2.425777961870638 5.992000000000000 120 123 108
-0.821252279878702 -2.404387924473925 6.016000000000000 125 128 113
-0.824392040922121 -2.382355205093757 6.039000000000000 133 136 121
-0.828077847364396 -2.361641937522418 6.066000000000000 143 144 128
-0.832446210555240 -2.342570228868365 6.098000000000000 151 153 133
-0.835585971598660 -2.319756754550706 6.121000000000000 158 160 138
-0.840363868838645 -2.301191187159530 6.156000000000000 169 170 145
-0.846233856876342 -2.285212817761012 6.199000000000000 174 174 152
-0.855380117307172 -2.277513098590462 6.266000000000000 170 172 152
-0.864935911787144 -2.270195427182791 6.336000000000000 128 129 113
-0.876675887862537 -2.267803964760438 6.422000000000000 77 78 66
-0.879815648905957 -2.242601690567804 6.445000000000000 71 72 60
-0.880361694304812 -2.210648572689490 6.449000000000000 85 84 70
-0.883091921299090 -2.184055991046489 6.469000000000000 101 99 78
-0.886231682342509 -2.158253931603861 6.492000000000000 108 104 81
-0.888415863937931 -2.129923082589536 6.508000000000000 113 109 86
-0.889507954735642 -2.098849918707554 6.516000000000000 116 112 89
-0.890463534183639 -2.067377089279617 6.523000000000000 118 114 91
-0.891555624981350 -2.036143637960137 6.531000000000000 120 116 91
-0.893193761177917 -2.006053839324488 6.543000000000000 122 118 93
-0.894285851975628 -1.974634247755010 6.551000000000000 123 118 93
-0.895377942773339 -1.943131927185533 6.559000000000000 125 120 95
-0.896333522221336 -1.911255793882599 6.566000000000000 126 121 96
-0.897425613019047 -1.879593185875624 6.574000000000000 127 122 97
-0.898517703816758 -1.847847848868650 6.582000000000000 128 123 98
-0.899063749215614 -1.814917494677845 6.586000000000000 130 125 100
-0.900155840013325 -1.783027381920873 6.594000000000000 130 125 100
-0.901247930811036 -1.751054540163901 6.602000000000000 131 126 101
-0.901247930811036 -1.716918486539266 6.602000000000000 131 126 101
-0.902203510259033 -1.684566661486337 6.609000000000000 132 127 102
-0.903295601056744 -1.652392167791868 6.617000000000000 133 128 103
-0.904387691854455 -1.620134945097399 6.625000000000000 134 129 104
-0.905479782652166 -1.587794993402931 6.633000000000000 134 129 104
-0.906025828051021 -1.554435482524631 6.637000000000000 134 129 104
-0.906571873449877 -1.521034607146332 6.641000000000000 134 129 104
-0.907527452897874 -1.488263966530907 6.648000000000000 135 130 105
-0.908073498296730 -1.454764850465109 6.652000000000000 136 131 106
-0.908619543695585 -1.421224369899311 6.656000000000000 136 131 106
-0.909711634493296 -1.388475943767348 6.664000000000000 136 131 106
-0.910257679892152 -1.354832051951551 6.668000000000000 136 131 106
-0.910803725291007 -1.321146795635754 6.672000000000000 136 131 106
-0.911349770689863 -1.287420174819958 6.676000000000000 136 131 106
-0.911895816088718 -1.253652189504163 6.680000000000000 135 130 105
-0.912441861487574 -1.219842839688368 6.684000000000000 135 130 105
-0.912987906886429 -1.185992125372573 6.688000000000000 135 130 105
-0.913397440935571 -1.151927885760820 6.691000000000000 134 129 104
-0.914489531733282 -1.118667573941362 6.699000000000000 134 129 106
-0.915035577132138 -1.084677254438069 6.703000000000000 130 125 105
-0.916673713328704 -1.051898763302448 6.715000000000000 129 124 104
-0.917219758727560 -1.017784350299156 6.719000000000000 123 118 98
-0.918721383574412 -0.984652728680079 6.730000000000000 120 115 95
-0.919267428973268 -0.950419392739288 6.734000000000000 127 123 100
-0.920359519770979 -0.916688559732335 6.742000000000000 129 125 102
-0.921451610568690 -0.882874997725383 6.750000000000000 129 124 104
-0.922543701366401 -0.848978706718432 6.758000000000000 129 124 104
-0.923089746765256 -0.814517866027644 6.762000000000000 129 125 102
-0.923635792164112 -0.780015660836856 6.766000000000000 129 125 102
-0.924181837562967 -0.745472091146069 6.770000000000000 128 124 99
-0.925137417010965 -0.711201987405661 6.777000000000000 127 123 98
-0.926229507808676 -0.676959268711213 6.785000000000000 127 123 98
-0.925683462409820 -0.641498592715250 6.781000000000000 126 122 97
-0.925683462409820 -0.606437008403126 6.781000000000000 125 121 96
-0.926229507808676 -0.571712469024840 6.785000000000000 125 121 96
-0.926229507808676 -0.536630202462716 6.785000000000000 125 121 96
-0.926229507808676 -0.501547935900592 6.785000000000000 124 120 95
-0.926229507808676 -0.466465669338467 6.785000000000000 124 120 95
-0.926229507808676 -0.431383402776343 6.785000000000000 122 121 97
-0.926229507808676 -0.396301136214219 6.785000000000000 123 122 98
-0.926229507808676 -0.361218869652094 6.785000000000000 122 120 101
-0.926229507808676 -0.326136603089970 6.785000000000000 122 120 101
-0.927321598606387 -0.291397510395528 6.793000000000000 120 118 99
-0.927867644005242 -0.256424784017245 6.797000000000000 117 115 96
-0.927321598606387 -0.221150248271280 6.793000000000000 99 97 78
-0.924591371612109 -0.185478916289948 6.773000000000000 97 95 74
-0.919267428973268 -0.149592331622864 6.734000000000000 107 107 88
-0.910803725291007 -0.113717040648684 6.672000000000000 111 110 96
-0.897425613019047 -0.078055458519915 6.574000000000000 107 108 96
-0.881453785102523 -0.043279953517884 6.457000000000000 113 114 102
-0.866028002584855 -0.009720489074682 6.344000000000000 112 113 101
-0.849510129269475 0.022641321611218 6.223000000000000 112 113 101
-0.832992255954096 0.053751856172131 6.102000000000000 116 117 105
-0.814836246442150 0.083443361159589 5.969000000000000 116 116 106
-0.798864418525626 0.112065896786686 5.852000000000000 125 127 118
-0.781800499811391 0.139283956156484 5.727000000000000 118 118 108
-0.765692160545153 0.165415812892069 5.609000000000000 138 138 128
-0.750812423426340 0.190639372214017 5.500000000000000 133 133 123
-0.736478731706382 0.214895077977133 5.395000000000000 139 138 126
-0.722554574035567 0.238199974102376 5.293000000000000 140 139 123
-0.709176461763607 0.260650769043786 5.195000000000000 135 133 114
-0.695388815442505 0.281922101873091 5.094000000000000 142 140 119
-0.682556748569400 0.302572582693177 5.000000000000000 144 142 121
-0.670270727095151 0.322513738079428 4.910000000000000 143 141 120
-0.657984705620902 0.341524192215689 4.820000000000000 143 141 120
-0.645698684146652 0.359603945101960 4.730000000000000 144 139 119
-0.635050798868970 0.377727357936701 4.652000000000000 134 129 109
-0.623856868192432 0.394698693705298 4.570000000000000 128 123 103
-0.613208982914749 0.411188208790058 4.492000000000000 130 125 105
-0.603107143035922 0.427257949940979 4.418000000000000 129 123 106
-0.593551348555950 0.442969963908061 4.348000000000000 109 109 101
