ply
format ascii 1.0
element vertex 721
property double x
property double y
property double z
property uchar red
property uchar green
property uchar blue
end_header
-1.403542125021148 0.852527205810480 2.332000000000000 98 94 85
-1.392708609476387 0.857911488762715 2.314000000000000 99 95 86
-1.382476955906336 0.863485550293988 2.297000000000000 98 95 84
-1.371643440361576 0.868502723308727 2.279000000000000 98 95 84
-1.361411786791525 0.873720016027503 2.262000000000000 98 95 84
-1.351781995196182 0.879152940137816 2.246000000000000 98 95 84
-1.341550341626131 0.884023805169096 2.229000000000000 98 95 84
-1.331920550030789 0.889120642716913 2.213000000000000 98 95 84
-1.321087034486029 0.893238137856662 2.195000000000000 98 95 84
-1.314466552764231 0.900054282112157 2.184000000000000 98 94 85
-1.304836761168888 0.904670257347479 2.168000000000000 98 94 85
-1.295206969573546 0.909120774582803 2.152000000000000 99 95 86
-1.286179039952913 0.913833458272163 2.137000000000000 98 94 85
-1.275345524408153 0.917092640036921 2.119000000000000 103 100 89
-1.265113870838101 0.920603647130716 2.102000000000000 150 142 125
-1.254280355293341 0.923495718957978 2.084000000000000 170 159 133
-1.242243115799163 0.925305037127172 2.064000000000000 169 156 126
-1.234418910127948 0.930081873662111 2.051000000000000 170 155 128
-1.224789118532605 0.933348332084947 2.035000000000000 168 153 126
-1.216363050886681 0.937376969290854 2.021000000000000 165 150 123
-1.208538845215465 0.941729819700797 2.008000000000000 163 148 121
-1.201316501518958 0.946422395002275 1.996000000000000 161 146 121
-1.194094157822452 0.950990876803755 1.984000000000000 159 144 119
-1.186871814125945 0.955435265105236 1.972000000000000 156 143 115
-1.179047608454729 0.959265888702684 1.959000000000000 142 131 103
-1.173028988707640 0.964446602974736 1.949000000000000 138 127 99
-1.167612230935260 0.970023918325822 1.940000000000000 137 126 98
-1.162195473162880 0.975508163551910 1.931000000000000 139 128 100
-1.154973129466373 0.979368278290897 1.919000000000000 137 126 98
-1.147148923795158 0.982588775513352 1.906000000000000 133 122 94
-1.141732166022777 0.987757616426943 1.897000000000000 136 125 97
-1.135111684300979 0.991781656932468 1.886000000000000 137 126 98
-1.131500512452726 0.998347123583162 1.880000000000000 139 126 100
-1.124278168756220 1.001633305884656 1.868000000000000 140 127 101
-2.384378883186973 0.448431685586174 3.996000000000000 183 170 142
-2.347384015630019 0.461815029685596 3.934000000000000 182 169 141
-2.314565987958526 0.475415152900789 3.879000000000000 181 168 140
-2.281747960287034 0.488446514240989 3.824000000000000 182 169 141
-2.250123315439959 0.501174918489271 3.771000000000000 179 166 138
-2.219095362005093 0.513493316066596 3.719000000000000 177 164 136
-2.189857482806855 0.525703705693541 3.670000000000000 174 161 133
-2.159426220784198 0.537110552037415 3.619000000000000 171 156 131
-2.132575107234795 0.548911508855521 3.574000000000000 165 152 124
-2.103337228036557 0.559612094232481 3.525000000000000 157 144 116
-2.077679497311572 0.570789519083673 3.482000000000000 158 143 118
-2.052021766586587 0.581522275559868 3.439000000000000 159 144 119
-2.026364035861602 0.591810363661069 3.396000000000000 159 144 119
-2.001302996548826 0.601833220841312 3.354000000000000 166 151 124
-1.976241957236050 0.611421750771559 3.312000000000000 172 157 128
-1.951777609335483 0.620765732030849 3.271000000000000 177 162 135
-1.928506644259334 0.630075625448217 3.232000000000000 180 165 136
-1.904042296358767 0.638581975582515 3.191000000000000 180 165 136
-1.883158096931453 0.647896081191040 3.156000000000000 181 166 137
-1.862273897504140 0.656848247424570 3.121000000000000 182 165 139
-1.841389698076827 0.665438474283103 3.086000000000000 184 167 139
-1.820505498649513 0.673666761766640 3.051000000000000 184 168 137
-1.800814682046618 0.681985054908254 3.018000000000000 185 169 138
-1.780527174031514 0.689730947845836 2.984000000000000 184 168 137
-1.760836357428618 0.697361556174958 2.951000000000000 184 168 137
-1.742338923650141 0.705133875787157 2.920000000000000 184 168 136
-1.725034872696081 0.713078930057432 2.891000000000000 183 167 135
-1.707134130329813 0.720472266373675 2.861000000000000 184 168 136
-1.689830079375753 0.727812364831457 2.832000000000000 185 169 137
-1.671332645597275 0.734328237756169 2.801000000000000 185 169 137
-1.654625286055425 0.741325546855495 2.773000000000000 183 167 135
-1.637321235101365 0.747760796875786 2.744000000000000 180 164 132
-1.621210566971723 0.754451510554154 2.717000000000000 181 165 133
-1.604503207429873 0.760580165153488 2.689000000000000 180 164 132
-1.589585922124649 0.767283326052435 2.664000000000000 180 164 132
-1.573475253995007 0.773141579168311 2.637000000000000 181 165 133
-1.557961277277575 0.779018982300727 2.611000000000000 184 168 134
-1.543043991972350 0.784931047137181 2.586000000000000 188 172 138
-1.528723398079336 0.790893285365175 2.562000000000000 195 179 145
-1.513806112774112 0.796293464514135 2.537000000000000 180 168 145
-1.500082210293306 0.802073200821170 2.514000000000000 110 107 94
-1.486954999224709 0.807939304457243 2.492000000000000 100 96 87
-1.475617862392739 0.814566054642925 2.473000000000000 100 97 86
-1.462490651324142 0.819992660466503 2.451000000000000 100 97 86
-1.449960131667754 0.825531486431619 2.430000000000000 101 98 87
-1.438026303423575 0.831198044225772 2.410000000000000 101 98 87
-1.426689166591605 0.837007845536464 2.391000000000000 100 97 86
-1.415948721171844 0.842976402051193 2.373000000000000 99 96 85
-1.405208275752083 0.848758818315924 2.355000000000000 99 96 85
-1.393871138920113 0.853989516626621 2.336000000000000 98 94 85
-1.381937310675933 0.858652985295785 2.316000000000000 98 94 85
-1.371793556668381 0.864237387952058 2.299000000000000 98 94 85
-1.361053111248620 0.869264902091797 2.281000000000000 98 94 85
-1.350909357241068 0.874492535935573 2.264000000000000 98 94 85
-1.341362294645725 0.879935801170887 2.248000000000000 98 94 85
-1.330621849225964 0.884420406248131 2.230000000000000 98 94 85
-1.321671478042829 0.889924185999983 2.215000000000000 98 94 85
-1.312124415447486 0.894865906672802 2.199000000000000 98 94 85
-1.304367427088770 0.900878507645227 2.186000000000000 98 94 85
-1.296013747317844 0.906339390663618 2.172000000000000 99 95 86
-1.285273301898083 0.909965682365872 2.154000000000000 100 94 84
-1.273936165066113 0.912978209364094 2.135000000000000 104 98 80
-1.263195719646352 0.916227050003852 2.117000000000000 151 141 117
-1.251858582814382 0.918851784814577 2.098000000000000 173 160 132
-1.242311520219038 0.922609446674908 2.082000000000000 169 155 123
-1.230377691974859 0.924408423719103 2.062000000000000 170 155 126
-1.222620703616143 0.929174919129042 2.049000000000000 170 155 126
-1.214267023845218 0.933348332084947 2.035000000000000 169 154 125
-1.205913344074293 0.937376969290854 2.021000000000000 166 151 124
-1.199349738539994 0.942667797608865 2.010000000000000 162 149 121
-1.191592750181278 0.946896554518809 1.997000000000000 160 145 120
-1.184432453234770 0.951470206882789 1.985000000000000 159 144 119
-1.176675464876054 0.955435265105236 1.972000000000000 155 142 114
-1.169515167929547 0.959755559906718 1.960000000000000 142 129 101
-1.162951562395248 0.964446602974736 1.949000000000000 136 125 97
-1.156984648273159 0.969523905996789 1.939000000000000 138 125 97
-1.152211116975487 0.975508163551910 1.931000000000000 138 127 99
-1.145050820028980 0.979368278290897 1.919000000000000 137 126 98
-1.136697140258054 0.982073251496819 1.905000000000000 134 123 95
-1.131326917548173 0.987236921847910 1.896000000000000 138 127 99
-1.124763312013875 0.991255791790935 1.885000000000000 137 126 98
-1.121779854952830 0.998347123583162 1.880000000000000 138 127 99
-1.115216249418532 1.002169512151189 1.869000000000000 140 129 101
-2.330000627003781 0.462401983205786 3.939000000000000 179 166 138
-2.296875459420077 0.475905397966941 3.883000000000000 179 166 138
-2.264341812686081 0.488957441557141 3.828000000000000 180 167 139
-2.232991207651504 0.501706528055422 3.775000000000000 177 164 136
-2.203415165166053 0.514321753790823 3.725000000000000 178 165 137
-2.174430643530312 0.526563166792767 3.676000000000000 175 162 134
-2.144263080195153 0.538001036511641 3.625000000000000 169 154 129
-2.116461600258829 0.549525847421671 3.578000000000000 162 149 121
-2.088660120322506 0.560564625456707 3.531000000000000 158 145 117
-2.063224723785019 0.571773073682898 3.488000000000000 158 143 118
-2.036606285548114 0.582198660876018 3.443000000000000 158 143 118
-2.009987847311208 0.592158897444144 3.398000000000000 159 144 119
-1.985735492473139 0.602371533203424 3.357000000000000 166 151 124
-1.961483137635069 0.612160182837708 3.316000000000000 174 159 130
-1.937230782797000 0.621524846346998 3.275000000000000 178 163 136
-1.914161469658349 0.630855422014366 3.236000000000000 180 165 136
-1.889909114820279 0.639382454398664 3.195000000000000 180 165 136
-1.869205885080464 0.648717242257189 3.160000000000000 180 165 136
-1.847319613641231 0.657269169082644 3.123000000000000 183 166 140
-1.827799425600834 0.666300999849251 3.090000000000000 185 168 140
-1.805913154161600 0.674108365674714 3.053000000000000 185 169 138
-1.786984486970912 0.682662972457865 3.021000000000000 184 168 137
-1.767464298930515 0.690655520161983 2.988000000000000 184 168 137
-1.747944110890118 0.698306810741105 2.955000000000000 184 168 137
-1.728423922849720 0.705616844195230 2.922000000000000 184 168 136
-1.712452859907577 0.714065549123579 2.895000000000000 184 168 136
-1.694707234416307 0.721479567689821 2.865000000000000 185 169 137
-1.676370088075328 0.728326356614530 2.834000000000000 185 169 137
-1.659215983433767 0.735376903572315 2.805000000000000 185 169 137
-1.642653399641914 0.742394894921640 2.777000000000000 183 167 135
-1.625499295000353 0.748850827191932 2.748000000000000 179 163 131
-1.608345190358792 0.755006866837227 2.719000000000000 180 164 132
-1.591782606566940 0.761145862561561 2.691000000000000 179 163 131
-1.576994585324214 0.767859364585507 2.666000000000000 179 163 131
-1.562206564081489 0.774314338484456 2.641000000000000 180 164 132
-1.546827021989055 0.780212423866871 2.615000000000000 185 169 135
-1.532039000746330 0.786145170953326 2.590000000000000 192 176 142
-1.516659458653896 0.791510688398247 2.564000000000000 193 177 143
-1.503054479110588 0.797548952830279 2.541000000000000 127 115 92
-1.489449499567281 0.803349371387313 2.518000000000000 100 97 84
-1.476436040873683 0.809236157273386 2.496000000000000 101 97 88
-1.465197144729212 0.815883589709068 2.477000000000000 100 97 86
-1.452183686035614 0.821330877782646 2.455000000000000 100 97 86
-1.439761748191725 0.826890385997761 2.434000000000000 101 98 87
-1.427931331197544 0.832577626041915 2.414000000000000 101 98 87
-1.416692435053073 0.838408109602606 2.395000000000000 100 97 86
-1.406045059758311 0.844397348367334 2.377000000000000 99 96 85
-1.394214642764131 0.849479632598995 2.357000000000000 99 96 85
-1.382975746619660 0.854720672034692 2.338000000000000 98 94 85
-1.372328371324898 0.860135978361927 2.320000000000000 98 94 85
-1.361089475180427 0.864989225610129 2.301000000000000 98 94 85
-1.350442099885665 0.870027080874867 2.283000000000000 98 94 85
-1.340386245440611 0.875265055843644 2.266000000000000 98 94 85
-1.330921911845267 0.880718662203957 2.250000000000000 98 94 85
-1.321457578249923 0.886006810564271 2.234000000000000 97 93 84
-1.311401723804870 0.890727729283053 2.217000000000000 97 93 84
-1.303120431908944 0.896493675488941 2.203000000000000 97 93 84
-1.294839140013018 0.902114845944831 2.189000000000000 97 93 84
-1.285966327267383 0.907173957321688 2.174000000000000 97 93 84
-1.275318951972621 0.910810590148942 2.156000000000000 103 97 87
-1.262897014128731 0.912978209364094 2.135000000000000 143 137 119
-1.251066597134551 0.915361459970783 2.115000000000000 168 158 134
-1.239827700990080 0.917975853656508 2.096000000000000 167 154 126
-1.230363367394736 0.921723174391839 2.080000000000000 167 153 121
-1.220899033799392 0.925305037127172 2.064000000000000 168 153 124
-1.212026221053757 0.929174919129042 2.049000000000000 168 153 124
-1.204927970857248 0.934265627743016 2.037000000000000 168 153 124
-1.196646678961323 0.938304606073923 2.023000000000000 168 153 126
-1.188956907915105 0.942667797608865 2.010000000000000 162 149 121
-1.181267136868888 0.946896554518809 1.997000000000000 159 144 119
-1.174168886672380 0.951470206882789 1.985000000000000 159 144 119
-1.167662157325581 0.956404266388304 1.974000000000000 154 141 113
-1.159972386279364 0.960245231110752 1.961000000000000 142 129 101
-1.153465656932565 0.964941444741270 1.950000000000000 136 125 97
-1.147550448435475 0.970023918325822 1.940000000000000 138 125 97
-1.141635239938385 0.975002980660376 1.930000000000000 136 125 97
-1.135128510591586 0.979368278290897 1.919000000000000 135 124 96
-1.126847218695660 0.982073251496819 1.905000000000000 136 125 97
-1.121523531048279 0.987236921847910 1.896000000000000 139 128 100
-1.115608322551188 0.991781656932468 1.886000000000000 139 128 100
-1.112059197452934 0.998347123583162 1.880000000000000 141 130 102
-1.106735509805553 1.003241924684256 1.871000000000000 144 133 105
-2.313151883039753 0.463106327430014 3.945000000000000 159 146 118
-2.280316266956046 0.476640765566169 3.889000000000000 161 150 122
-2.246894300585129 0.489468368873292 3.832000000000000 160 149 121
-2.215817735363049 0.502238137621574 3.779000000000000 163 150 122
-2.186500221002596 0.514874045606974 3.729000000000000 166 153 125
-2.157769056929352 0.527136140858918 3.680000000000000 167 154 128
-2.127865192281690 0.538594692827792 3.629000000000000 162 149 123
-2.100306728782864 0.550140185987822 3.582000000000000 159 146 120
-2.072748265284038 0.561199646272857 3.535000000000000 159 146 118
-2.047535202934048 0.572428776749048 3.492000000000000 159 144 119
-2.019976739435222 0.582536853534093 3.445000000000000 157 142 117
-1.994763677085232 0.592855965010294 3.402000000000000 160 145 120
-1.969550614735243 0.602730408111499 3.359000000000000 167 152 125
-1.946682953534089 0.612898614903858 3.320000000000000 176 161 132
-1.921469891184099 0.621904403505072 3.277000000000000 178 163 134
-1.897429529408528 0.630855422014366 3.236000000000000 178 163 134
-1.874561868207375 0.639782693806738 3.197000000000000 179 164 135
-1.854039608155057 0.649127822790263 3.162000000000000 180 165 136
-1.832344647528322 0.657690090740718 3.125000000000000 182 167 138
-1.812995088050423 0.666732262632325 3.092000000000000 185 168 140
-1.792472827998105 0.674991573490861 3.057000000000000 184 168 137
-1.772536918232998 0.683114917490939 3.023000000000000 183 166 138
-1.753187358755098 0.691117806320057 2.990000000000000 184 167 139
-1.735010499851618 0.699252065307252 2.959000000000000 185 169 138
-1.715660940373719 0.706582781011377 2.926000000000000 185 169 138
-1.698070431757446 0.714312203890116 2.896000000000000 187 171 140
-1.681066273428384 0.721983218347894 2.867000000000000 186 170 138
-1.664062115099321 0.729354340180676 2.838000000000000 184 168 136
-1.645885256195840 0.735901236480388 2.807000000000000 185 169 137
-1.629467448153986 0.742929568954713 2.779000000000000 182 166 134
-1.612463289824923 0.749395842350005 2.750000000000000 178 162 130
-1.596631832070279 0.756117579403372 2.723000000000000 179 163 131
-1.580214024028425 0.762277257377706 2.695000000000000 179 163 131
-1.564382566273780 0.768435403118579 2.668000000000000 179 163 131
-1.549723809093553 0.774900718142528 2.643000000000000 181 165 133
-1.534478701626118 0.780809144649944 2.617000000000000 187 169 135
-1.519819944445891 0.786752232861398 2.592000000000000 193 178 151
-1.504574836978456 0.792128091431319 2.566000000000000 135 127 111
-1.491088780372647 0.798176696988351 2.543000000000000 97 94 83
-1.478189074054048 0.804306499311921 2.521000000000000 101 99 89
-1.465875718022658 0.810533010089529 2.500000000000000 100 97 86
-1.453562361991267 0.816542357242140 2.479000000000000 100 97 86
-1.440662655672668 0.821999986440717 2.457000000000000 100 97 86
-1.429522000215696 0.828249285563904 2.438000000000000 101 98 87
-1.416622293897096 0.833267416949986 2.416000000000000 100 97 86
-1.406067988727333 0.839458307652212 2.398000000000000 99 96 85
-1.394927333270361 0.845107821525405 2.379000000000000 99 96 85
-1.383200327526179 0.850200446882065 2.359000000000000 99 96 85
-1.372059672069207 0.855451827442763 2.340000000000000 98 94 85
-1.361505366899444 0.860877474894997 2.322000000000000 98 94 85
-1.350364711442472 0.865741063268199 2.303000000000000 98 94 85
-1.339810406272709 0.870789259657938 2.285000000000000 97 93 84
-1.329842451390155 0.876037575751714 2.268000000000000 97 93 84
-1.320460846794810 0.881501523237027 2.252000000000000 97 93 84
-1.309906541625047 0.886006810564271 2.234000000000000 97 93 84
-1.302283987891329 0.892334815849193 2.221000000000000 97 93 84
-1.292902383295984 0.897307559897011 2.205000000000000 97 93 84
-1.284693479275057 0.902939071477901 2.191000000000000 96 92 83
-1.275898224966921 0.908008523979758 2.176000000000000 102 96 79
-1.262998518648322 0.909965682365872 2.154000000000000 144 134 111
-1.250685162616932 0.912122960456024 2.133000000000000 165 154 126
-1.238958156872750 0.914495869937713 2.113000000000000 165 152 122
-1.227817501415778 0.917099922498439 2.094000000000000 165 152 122
-1.218435896820433 0.920836902108770 2.078000000000000 168 153 124
-1.210226992799506 0.925305037127172 2.064000000000000 170 155 126
-1.202604439065788 0.930081873662111 2.051000000000000 169 154 125
-1.194395535044861 0.934265627743016 2.037000000000000 169 154 125
-1.186186631023935 0.938304606073923 2.023000000000000 168 153 126
-1.179736777864635 0.943605775516934 2.012000000000000 162 147 120
-1.172114224130917 0.947844873551878 1.999000000000000 159 144 117
-1.164491670397199 0.951949536961823 1.986000000000000 158 143 116
-1.157455466950690 0.956404266388304 1.974000000000000 154 139 112
-1.150419263504182 0.960734902314786 1.962000000000000 145 132 104
-1.143969410344882 0.965436286507804 1.951000000000000 140 129 101
-1.137519557185582 0.970023918325822 1.940000000000000 137 124 96
-1.131656054313492 0.975002980660376 1.930000000000000 135 122 96
-1.125206201154192 0.979368278290897 1.919000000000000 137 124 96
-1.117583647420474 0.982588775513352 1.906000000000000 139 126 98
-1.111720144548383 0.987236921847910 1.896000000000000 140 127 101
-1.105270291389084 0.991255791790935 1.885000000000000 139 128 100
-1.101752189665829 0.997816087879129 1.879000000000000 141 130 102
-1.095302336506530 1.001633305884656 1.868000000000000 143 132 104
-2.296241092325727 0.463810671654242 3.951000000000000 156 143 115
-2.262532668292597 0.477131010632321 3.893000000000000 154 143 115
-2.230567783433596 0.490234759847520 3.838000000000000 149 138 110
-2.199765258024013 0.503035551970801 3.785000000000000 149 136 108
-2.170125092063848 0.515564410377163 3.734000000000000 150 137 109
-2.141066105828392 0.527709114925069 3.684000000000000 151 138 112
-2.111425939868227 0.539188349143943 3.633000000000000 153 140 114
-2.084110492806898 0.550754524553973 3.586000000000000 154 141 115
-2.055632686296152 0.561517156680932 3.537000000000000 157 144 116
-2.030641958133660 0.572756628282123 3.494000000000000 159 144 119
-2.004488870521749 0.583213238850243 3.449000000000000 159 144 119
-1.978335782909839 0.593204498793368 3.404000000000000 161 146 121
-1.953345054747347 0.603089283019573 3.361000000000000 169 154 127
-1.929516686034273 0.612898614903858 3.320000000000000 178 163 134
-1.905688317321199 0.622283960663147 3.279000000000000 178 163 134
-1.883022308057544 0.631635218580514 3.240000000000000 178 163 134
-1.860356298793888 0.640583172622887 3.201000000000000 181 166 137
-1.838852648979651 0.649538403323337 3.164000000000000 182 167 138
-1.818511358614831 0.658531934056866 3.129000000000000 183 168 139
-1.798170068250012 0.667163525415399 3.094000000000000 184 167 139
-1.777828777885193 0.675433177398935 3.059000000000000 183 167 136
-1.758068667245083 0.683566862524012 3.025000000000000 183 166 138
-1.740052095779101 0.692042378636204 2.994000000000000 185 168 140
-1.720873164863699 0.699724692590325 2.961000000000000 185 169 138
-1.702856593397717 0.707548717827524 2.930000000000000 185 169 138
-1.685421201656443 0.715298822956262 2.900000000000000 185 169 138
-1.668566989639879 0.722990519664041 2.871000000000000 184 168 136
-1.650550418173896 0.729868331963749 2.840000000000000 184 168 136
-1.633696206157332 0.736949902296534 2.811000000000000 184 168 136
-1.616260814416058 0.743464242987786 2.781000000000000 181 165 133
-1.600568961848912 0.750485872666150 2.754000000000000 177 161 129
-1.583714749832348 0.756672935686445 2.725000000000000 178 162 130
-1.567441717540492 0.762842954785779 2.697000000000000 178 162 130
-1.551749864973346 0.769011441651652 2.670000000000000 179 163 131
-1.537220371855618 0.775487097800600 2.645000000000000 182 166 134
-1.522109699013181 0.781405865433016 2.619000000000000 192 174 140
-1.507580205895453 0.787359294769470 2.594000000000000 154 139 112
-1.494794251951852 0.793980300530535 2.572000000000000 102 94 78
-1.481427118283543 0.800059929462566 2.549000000000000 102 99 88
-1.467478804890524 0.805582669878064 2.525000000000000 100 98 88
-1.455274030671633 0.811829862905672 2.504000000000000 100 97 86
-1.442488076728032 0.817530508541747 2.482000000000000 100 97 86
-1.430283302509140 0.823338203756860 2.461000000000000 100 97 86
-1.418659708014958 0.829268460238511 2.441000000000000 100 97 86
-1.407617293245485 0.835336789674199 2.422000000000000 100 97 86
-1.395993698751302 0.840858571718355 2.402000000000000 99 96 85
-1.384951283981829 0.846528767841547 2.383000000000000 99 96 85
-1.373327689487647 0.851642075448207 2.363000000000000 99 96 85
-1.362285274718173 0.856914138258904 2.344000000000000 99 95 86
-1.351824039673409 0.862360467961139 2.326000000000000 98 94 85
-1.340781624903936 0.867244738584340 2.307000000000000 98 94 85
-1.330320389859172 0.872313617224079 2.289000000000000 97 93 84
-1.319859154814408 0.877196355613819 2.271000000000000 97 93 84
-1.311141458943771 0.883067245303167 2.256000000000000 97 93 84
-1.300680223899007 0.887593214880412 2.238000000000000 97 93 84
-1.293124887477788 0.893941902415333 2.225000000000000 98 94 85
-1.282663652433024 0.898121444305081 2.207000000000000 96 92 83
-1.273364776837678 0.902939071477901 2.191000000000000 99 95 86
-1.263484721517623 0.907173957321688 2.174000000000000 138 132 115
-1.251861127023441 0.909965682365872 2.154000000000000 155 145 122
-1.239656352804549 0.912122960456024 2.133000000000000 156 145 117
-1.226870398860949 0.913630279904644 2.111000000000000 159 146 116
-1.216990343540894 0.917099922498439 2.094000000000000 165 152 122
-1.207691467945548 0.920836902108770 2.078000000000000 171 156 127
-1.199554951799620 0.925305037127172 2.064000000000000 172 157 128
-1.191999615378402 0.930081873662111 2.051000000000000 171 156 127
-1.183863099232474 0.934265627743016 2.037000000000000 169 154 125
-1.175726583086547 0.938304606073923 2.023000000000000 168 153 126
-1.169333606114746 0.943605775516934 2.012000000000000 162 147 120
-1.161197089968819 0.947370714035344 1.998000000000000 158 143 116
-1.153641753547600 0.951470206882789 1.985000000000000 157 142 115
-1.147248776575800 0.956404266388304 1.974000000000000 153 138 111
-1.140855799603999 0.961224573518820 1.963000000000000 147 134 106
-1.133300463182781 0.964941444741270 1.950000000000000 141 130 102
-1.127488665935690 0.970023918325822 1.940000000000000 137 124 96
-1.121676868688599 0.975002980660376 1.930000000000000 136 123 97
-1.115283891716798 0.979368278290897 1.919000000000000 139 126 98
-1.107728555295580 0.982588775513352 1.906000000000000 141 128 100
-1.101916758048489 0.987236921847910 1.896000000000000 141 128 102
-1.094942601351979 0.990729926649401 1.884000000000000 140 129 101
-1.091455523003724 0.997285052175095 1.878000000000000 142 131 103
-1.084481366307215 1.000560893351589 1.866000000000000 141 130 102
-2.282724309834956 0.465219360102698 3.963000000000000 172 159 133
-2.247587750940196 0.478234062031163 3.902000000000000 173 158 133
-2.214179219532064 0.491001150821747 3.844000000000000 170 157 131
-2.183650733934978 0.503832966320028 3.791000000000000 168 155 127
-2.151970230013473 0.515840556285239 3.736000000000000 166 153 125
-2.124321790227433 0.528282088991220 3.688000000000000 163 150 122
-2.094945322954765 0.539782005460093 3.637000000000000 159 146 120
-2.067872892330934 0.551368863120123 3.590000000000000 157 144 116
-2.039648443382684 0.562152177497083 3.541000000000000 160 145 118
-2.014880049407690 0.573412331348273 3.498000000000000 160 147 119
-1.987807618783859 0.583551431508318 3.451000000000000 160 147 119
-1.961887206484446 0.593553032576443 3.406000000000000 163 148 121
-1.937118812509451 0.603448157927648 3.363000000000000 171 156 129
-1.913502436858875 0.613267830936932 3.322000000000000 177 162 133
-1.889886061208299 0.622663517821221 3.281000000000000 178 163 134
-1.867421703882141 0.632025116863589 3.242000000000000 179 164 135
-1.844957346555983 0.640983412030961 3.203000000000000 181 166 137
-1.823645007554244 0.649948983856411 3.166000000000000 182 167 138
-1.803484686876923 0.658952855714940 3.131000000000000 182 167 138
-1.783324366199602 0.667594788198473 3.096000000000000 182 166 135
-1.763164045522281 0.675874781307009 3.061000000000000 182 165 137
-1.744731752331587 0.684470752590160 3.029000000000000 183 166 138
-1.725723449978684 0.692504664794277 2.996000000000000 184 167 139
-1.706715147625782 0.700197319873399 2.963000000000000 184 169 140
-1.688858863597297 0.708031686235597 2.932000000000000 185 169 138
-1.671578588731022 0.715792132489335 2.902000000000000 183 167 136
-1.653722304702538 0.722990519664041 2.871000000000000 183 167 136
-1.637018038998472 0.730382323746822 2.842000000000000 184 168 136
-1.619161754969987 0.736949902296534 2.811000000000000 183 167 135
-1.603033498428130 0.743998917020859 2.783000000000000 180 164 132
-1.586329232724065 0.750485872666150 2.754000000000000 178 162 130
-1.570776985344417 0.757228291969517 2.727000000000000 178 162 130
-1.554648728802560 0.763408652193851 2.699000000000000 178 162 130
-1.540248499747331 0.770163518717797 2.674000000000000 180 164 132
-1.524120243205474 0.775780287629636 2.646000000000000 186 171 142
-1.510872032474663 0.782599306999160 2.623000000000000 160 149 131
-1.495319785095015 0.787966356677542 2.596000000000000 100 97 86
-1.482647583526413 0.794597703563607 2.574000000000000 102 99 88
-1.469399372795603 0.800687673620638 2.551000000000000 102 99 88
-1.456727171227000 0.806858840444208 2.529000000000000 101 98 87
-1.443478960496189 0.812478289313744 2.506000000000000 100 97 86
-1.431958777252006 0.818848043607890 2.486000000000000 100 97 86
-1.418710566521195 0.824007312414931 2.463000000000000 100 97 86
-1.407190383277012 0.829947910021582 2.443000000000000 100 97 86
-1.396246209195037 0.836026580582271 2.424000000000000 100 97 86
-1.384726025950854 0.841558703751426 2.404000000000000 99 96 85
-1.373781851868879 0.847239240999618 2.385000000000000 99 96 85
-1.362261668624696 0.852362889731278 2.365000000000000 99 96 85
-1.352469512867140 0.858376449075046 2.348000000000000 99 96 85
-1.340949329622956 0.863101964494209 2.328000000000000 98 94 85
-1.331157173865400 0.868748413900481 2.311000000000000 98 94 85
-1.319636990621217 0.873075796007149 2.291000000000000 97 93 84
-1.310420844025870 0.878741395429960 2.275000000000000 97 93 84
-1.301780706592732 0.884632967369308 2.260000000000000 97 93 84
-1.291412541672968 0.889179619196552 2.242000000000000 98 94 85
-1.282772404239830 0.894745445698403 2.227000000000000 98 92 82
-1.271252220995646 0.898121444305081 2.207000000000000 101 95 78
-1.260308046913672 0.901702733178296 2.188000000000000 140 130 106
-1.249939881993907 0.905504824005549 2.170000000000000 154 143 115
-1.238419698749724 0.908275866799733 2.150000000000000 153 140 112
-1.225171488018912 0.909557213731816 2.127000000000000 157 144 116
-1.214803323099148 0.912764689871574 2.109000000000000 158 145 115
-1.206163185666010 0.917099922498439 2.094000000000000 164 151 121
-1.196947039070663 0.920836902108770 2.078000000000000 170 157 127
-1.188882910799735 0.925305037127172 2.064000000000000 172 157 128
-1.181394791691015 0.930081873662111 2.051000000000000 171 156 129
-1.173330663420087 0.934265627743016 2.037000000000000 169 154 127
-1.165266535149159 0.938304606073923 2.023000000000000 169 154 127
-1.157778416040439 0.942667797608865 2.010000000000000 161 146 119
-1.150866306093929 0.947370714035344 1.998000000000000 158 143 116
-1.143954196147419 0.951949536961823 1.986000000000000 157 142 117
-1.137042086200909 0.956404266388304 1.974000000000000 153 138 113
-1.130129976254399 0.960734902314786 1.962000000000000 142 129 101
-1.123217866307889 0.964941444741270 1.950000000000000 137 126 98
-1.117457774685797 0.970023918325822 1.940000000000000 137 124 96
-1.111697683063705 0.975002980660376 1.930000000000000 137 124 98
-1.105361582279405 0.979368278290897 1.919000000000000 138 125 99
-1.097873463170685 0.982588775513352 1.906000000000000 140 127 101
-1.091537362386384 0.986716227268876 1.895000000000000 141 128 102
-1.084049243277665 0.989678196366333 1.882000000000000 142 129 103
-1.081169197466619 0.996754016471061 1.877000000000000 142 129 103
-1.073105069195691 0.998952274551988 1.863000000000000 140 127 101
-2.265658402245930 0.465923704326926 3.969000000000000 175 162 136
-2.229695570464249 0.478724307097315 3.906000000000000 177 162 137
-2.196586931681114 0.491512078137899 3.848000000000000 177 164 138
-2.165190808697106 0.504098771103104 3.793000000000000 177 164 136
-2.133794685713098 0.516116702193315 3.738000000000000 176 163 135
-2.105823594327346 0.528425332507758 3.689000000000000 172 159 131
-2.077281664341885 0.540078833618169 3.639000000000000 168 155 129
-2.050452250155551 0.551676032403198 3.592000000000000 162 149 121
-2.023622835969217 0.562787198313233 3.545000000000000 162 147 120
-1.997935098982302 0.573740182881348 3.500000000000000 162 149 121
-1.971105684795968 0.583889624166393 3.453000000000000 164 151 123
-1.945417947809053 0.593901566359518 3.408000000000000 167 152 125
-1.920871888021556 0.603807032835723 3.365000000000000 172 157 130
-1.897467505433478 0.613637046970007 3.324000000000000 176 161 132
-1.875204800044818 0.623422632137370 3.285000000000000 178 163 134
-1.851800417456740 0.632415015146663 3.244000000000000 180 165 136
-1.829537712068079 0.641383651439035 3.205000000000000 182 167 138
-1.808416683878838 0.650359564389486 3.168000000000000 182 167 138
-1.788437332889015 0.659373777373014 3.133000000000000 180 165 136
-1.768457981899192 0.668026050981546 3.098000000000000 180 164 133
-1.749049469509078 0.676537187169120 3.064000000000000 181 164 136
-1.730211795718674 0.684922697623234 3.031000000000000 183 166 138
-1.711374121928269 0.692966950952351 2.998000000000000 184 167 139
-1.693678125337283 0.701142574439546 2.967000000000000 183 168 139
-1.674840451546878 0.708514654643670 2.934000000000000 184 168 137
-1.657715293555601 0.716285442022409 2.904000000000000 182 166 135
-1.640019296964615 0.723494170322114 2.873000000000000 183 167 136
-1.622323300373629 0.730382323746822 2.842000000000000 183 167 135
-1.605198142382352 0.737212068750570 2.812000000000000 183 167 135
-1.589785500190203 0.744533591053932 2.785000000000000 181 165 133
-1.573231180798635 0.751030887824223 2.756000000000000 180 164 132
-1.557818538606486 0.757783648252590 2.729000000000000 179 163 131
-1.541835057814628 0.763974349601924 2.701000000000000 179 163 131
-1.527564092821897 0.770739557250869 2.676000000000000 184 168 136
-1.512722289229457 0.776953046945781 2.650000000000000 175 160 131
-1.498451324236726 0.783196027782232 2.625000000000000 112 101 83
-1.484180359243996 0.789180480493686 2.600000000000000 99 96 85
-1.470480232850974 0.795215106596679 2.576000000000000 102 99 88
-1.458492622257081 0.801943161936782 2.555000000000000 102 99 88
-1.444792495864059 0.807496925727279 2.531000000000000 102 99 88
-1.431663208070747 0.813126715721816 2.508000000000000 101 98 87
-1.419104758877144 0.818848043607890 2.486000000000000 100 97 86
-1.407117148283250 0.824676421073003 2.465000000000000 100 97 86
-1.395700376289065 0.830627359804653 2.445000000000000 99 96 85
-1.384854442894590 0.836716371490342 2.426000000000000 99 96 85
-1.374579348099824 0.842958967817568 2.408000000000000 99 96 85
-1.362591737505930 0.847949714157689 2.387000000000000 99 96 85
-1.351174965511746 0.853083704014349 2.367000000000000 99 96 85
-1.341470709316688 0.859107604483116 2.350000000000000 99 96 85
-1.331195614521922 0.864584957560351 2.332000000000000 98 94 85
-1.319778842527738 0.869124332729516 2.312000000000000 97 93 84
-1.310074586332681 0.874600153573290 2.295000000000000 97 93 84
-1.300941168737333 0.880286435246100 2.279000000000000 98 94 85
-1.291236912542276 0.885415828402378 2.262000000000000 99 95 86
-1.282103494946929 0.890766023512692 2.246000000000000 97 93 84
-1.271257561552453 0.894745445698403 2.227000000000000 101 95 85
-1.258699112358850 0.897307559897011 2.205000000000000 136 130 113
-1.247853178964375 0.900878507645227 2.186000000000000 151 141 117
-1.236436406970190 0.903835690689409 2.166000000000000 147 136 108
-1.225019634976006 0.906586051233594 2.146000000000000 151 138 110
-1.214173701581530 0.909557213731816 2.127000000000000 154 141 113
-1.203898606786764 0.912764689871574 2.109000000000000 158 145 115
-1.195336027791126 0.917099922498439 2.094000000000000 167 154 124
-1.186202610195778 0.920836902108770 2.078000000000000 171 158 128
-1.178210869799849 0.925305037127172 2.064000000000000 173 158 129
-1.170789968003629 0.930081873662111 2.051000000000000 173 158 131
-1.162798227607700 0.934265627743016 2.037000000000000 171 156 129
-1.154806487211770 0.938304606073923 2.023000000000000 166 151 124
-1.147385585415550 0.942667797608865 2.010000000000000 161 146 119
-1.141106360818749 0.947844873551878 1.999000000000000 159 144 117
-1.133685459022529 0.951949536961823 1.986000000000000 157 142 117
-1.126835395826018 0.956404266388304 1.974000000000000 153 138 113
-1.120556171229217 0.961224573518820 1.963000000000000 140 127 99
-1.113706108032706 0.965436286507804 1.951000000000000 136 125 97
-1.107426883435904 0.970023918325822 1.940000000000000 136 123 95
-1.101718497438812 0.975002980660376 1.930000000000000 138 125 99
-1.094868434242301 0.978857924836864 1.918000000000000 138 125 99
-1.087447532446081 0.982073251496819 1.905000000000000 139 126 100
-1.081168307849280 0.986195532689842 1.894000000000000 141 128 102
-1.073747406053060 0.989152331224800 1.881000000000000 141 128 102
-1.070322374454804 0.995691945062994 1.875000000000000 140 127 101
-1.062901472658585 0.998416068285454 1.862000000000000 140 127 101
-2.246267775758068 0.466158485735003 3.971000000000000 175 162 136
-2.211762025488302 0.479214552163466 3.910000000000000 176 163 135
-2.178953279330164 0.492023005454051 3.852000000000000 177 164 136
-2.147841537283653 0.504630380669255 3.797000000000000 177 164 136
-2.116729795237142 0.516668994009466 3.742000000000000 175 162 134
-2.089012061413888 0.528998306573909 3.693000000000000 173 160 132
-2.060728659553423 0.540672489934320 3.643000000000000 169 156 128
-2.033010925730168 0.551983201686274 3.594000000000000 165 152 124
-2.006424527981332 0.563104708721308 3.547000000000000 164 151 123
-1.980969466306914 0.574068034414423 3.502000000000000 164 151 121
-1.954383068558078 0.584227816824468 3.455000000000000 166 153 123
-1.928928006883660 0.594250100142593 3.410000000000000 168 155 125
-1.905735617358080 0.604524782651872 3.369000000000000 173 158 129
-1.882543227832499 0.614375479036156 3.328000000000000 176 161 132
-1.859350838306918 0.623802189295445 3.287000000000000 179 164 135
-1.836158448781337 0.632804913429738 3.246000000000000 180 165 138
-1.814097395330175 0.641783890847109 3.207000000000000 181 166 137
-1.793167677953432 0.650770144922560 3.170000000000000 181 166 137
-1.773369296651107 0.659794699031088 3.135000000000000 179 164 135
-1.753570915348782 0.668457313764620 3.100000000000000 180 165 136
-1.734338202083666 0.676978791077193 3.066000000000000 181 166 137
-1.715671156855760 0.685374642656307 3.033000000000000 181 166 137
-1.698135447702272 0.693891523268498 3.002000000000000 182 167 138
-1.679468402474366 0.701615201722619 2.969000000000000 182 167 138
-1.660801357246459 0.708997623051744 2.936000000000000 183 167 136
-1.643831316130181 0.716778751555482 2.906000000000000 183 167 136
-1.626295606976693 0.723997820980187 2.875000000000000 182 166 135
-1.608759897823205 0.730896315529895 2.844000000000000 183 167 136
-1.591789856706926 0.737736401658644 2.814000000000000 182 166 135
-1.576516819702276 0.745068265087004 2.787000000000000 182 166 135
-1.560112446623207 0.751575902982295 2.758000000000000 183 167 136
-1.544273741581347 0.758061326394126 2.730000000000000 182 166 134
-1.530132040651115 0.765105744418069 2.705000000000000 183 167 135
-1.515990339720883 0.771891634317014 2.680000000000000 177 165 142
-1.500151634679022 0.777539426603853 2.652000000000000 118 112 98
-1.487141269823209 0.784389469348377 2.629000000000000 97 93 84
-1.472999568892977 0.790394604309830 2.604000000000000 101 97 88
-1.459423535999954 0.796449912662823 2.580000000000000 101 97 88
-1.446413171144140 0.802570906094853 2.557000000000000 101 98 87
-1.432837138251118 0.808135011010351 2.533000000000000 100 96 87
-1.419826773395304 0.813775142129887 2.510000000000000 101 97 88
-1.408513412651118 0.820165578674033 2.490000000000000 101 97 88
-1.396634383869723 0.826014638389145 2.469000000000000 100 97 86
-1.384189687051119 0.831306809587725 2.447000000000000 99 96 85
-1.372310658269724 0.836716371490342 2.426000000000000 100 97 86
-1.362128633599957 0.842958967817568 2.408000000000000 99 96 85
-1.351380940892980 0.848660187315760 2.389000000000000 99 96 85
-1.340067580148795 0.853804518297420 2.369000000000000 99 96 85
-1.329319887441819 0.859107604483116 2.350000000000000 99 96 85
-1.319137862772051 0.864584957560351 2.332000000000000 98 94 85
-1.308955838102284 0.869876170387587 2.314000000000000 98 94 85
-1.300470817544145 0.876124511139431 2.299000000000000 97 93 84
-1.290288792874378 0.881058955154171 2.281000000000000 97 93 84
-1.281803772316239 0.886981550468518 2.266000000000000 97 94 83
-1.271621747646472 0.891559225670762 2.248000000000000 101 95 78
-1.259742718865076 0.894745445698403 2.227000000000000 139 129 106
-1.246166685972054 0.896493675488941 2.203000000000000 153 142 114
-1.234287657190659 0.899230056579087 2.182000000000000 145 134 106
-1.222974296446473 0.902166557373270 2.162000000000000 144 133 103
-1.213357939813915 0.906163597342059 2.145000000000000 147 136 108
-1.204307251218567 0.910412462639885 2.129000000000000 152 139 111
-1.194125226548800 0.913630279904644 2.111000000000000 159 146 118
-1.185640205990660 0.917975853656508 2.096000000000000 175 163 130
-1.176589517395312 0.921723174391839 2.080000000000000 176 163 133
-1.167538828799963 0.925305037127172 2.064000000000000 176 161 132
-1.160185144316243 0.930081873662111 2.051000000000000 175 160 131
-1.152265791795313 0.934265627743016 2.037000000000000 172 157 130
-1.144346439274383 0.938304606073923 2.023000000000000 165 150 123
-1.136992754790662 0.942667797608865 2.010000000000000 162 147 120
-1.130204738344150 0.947370714035344 1.998000000000000 158 143 116
-1.122851053860430 0.951470206882789 1.985000000000000 156 141 116
-1.116063037413918 0.955919765746770 1.973000000000000 151 136 111
-1.109275020967407 0.960245231110752 1.961000000000000 141 128 100
-1.103052672558105 0.964941444741270 1.950000000000000 136 125 97
-1.096830324148803 0.969523905996789 1.939000000000000 135 124 96
-1.091739311813919 0.975002980660376 1.930000000000000 139 126 98
-1.084951295367407 0.978857924836864 1.918000000000000 140 127 101
-1.077597610883687 0.982073251496819 1.905000000000000 141 128 102
-1.070809594437176 0.985674838110809 1.893000000000000 140 127 101
-1.063455909953455 0.988626466083266 1.880000000000000 139 126 100
-1.060061901730199 0.995160909358961 1.874000000000000 139 126 100
-1.052142549209269 0.997343655752387 1.860000000000000 138 125 99
-2.225735472070788 0.466158485735003 3.971000000000000 175 162 136
-2.192666121062937 0.479459674696542 3.912000000000000 177 164 136
-2.160717765004505 0.492406200941165 3.855000000000000 177 164 136
-2.130450901370201 0.505161990235407 3.801000000000000 177 164 136
-2.099623540261187 0.517221285825617 3.746000000000000 175 162 134
-2.071038169051011 0.529284793606984 3.695000000000000 173 160 132
-2.043573792790253 0.541117732171433 3.646000000000000 170 157 129
-2.016669914004205 0.552597540252424 3.598000000000000 167 154 126
-1.989205537743447 0.563422219129383 3.549000000000000 167 154 126
-1.963983151381527 0.574395885947498 3.504000000000000 166 153 123
-1.938760765019607 0.584904202140618 3.459000000000000 167 154 124
-1.912417383708268 0.594598633925668 3.412000000000000 169 156 126
-1.889436987245185 0.604883657559947 3.371000000000000 172 157 128
-1.866456590782102 0.614744695069231 3.330000000000000 176 161 132
-1.843476194319019 0.624181746453519 3.289000000000000 180 165 136
-1.821616792805355 0.633584709995886 3.250000000000000 180 165 138
-1.799757391291690 0.642584369663258 3.211000000000000 179 164 135
-1.779018984727445 0.651591305988708 3.174000000000000 179 164 135
-1.758280578163199 0.660215620689162 3.137000000000000 179 164 135
-1.739784161497791 0.669319839330768 3.104000000000000 180 165 136
-1.719606252408255 0.677420394985267 3.068000000000000 180 165 136
-1.702230830692265 0.686278532722455 3.037000000000000 181 166 137
-1.683734414026857 0.694353809426572 3.004000000000000 181 166 137
-1.665237997361449 0.702087829005693 2.971000000000000 181 166 137
-1.647302078170750 0.709722075663854 2.939000000000000 183 167 136
-1.629926656454760 0.717272061088555 2.908000000000000 182 166 135
-1.612551234738771 0.724501471638260 2.877000000000000 182 166 135
-1.596296807972200 0.731924299096041 2.848000000000000 182 166 135
-1.579481883730920 0.738785067474789 2.818000000000000 181 165 134
-1.563227456964349 0.745602939120077 2.789000000000000 182 166 135
-1.546973030197778 0.752120918140368 2.760000000000000 183 167 136
-1.531279100905917 0.758616682677199 2.732000000000000 182 166 134
-1.517266664038183 0.765671441826141 2.707000000000000 184 168 136
-1.503254227170449 0.772467672850086 2.682000000000000 133 121 98
-1.488681292828007 0.778712185919998 2.656000000000000 98 92 78
-1.474668855960273 0.784986190131449 2.631000000000000 100 96 87
-1.460095921617830 0.790698135263866 2.605000000000000 100 96 87
-1.447204479699515 0.797067315695894 2.582000000000000 100 96 87
-1.434313037781201 0.803198650252925 2.559000000000000 100 97 86
-1.421982093337595 0.809411181576494 2.537000000000000 100 96 87
-1.409090651419280 0.815071994946030 2.514000000000000 100 96 87
-1.396759706975675 0.820824346207105 2.492000000000000 100 96 87
-1.384989260006779 0.826683747047217 2.471000000000000 99 96 85
-1.372658315563173 0.831986259370796 2.449000000000000 99 96 85
-1.360887868594277 0.837406162398413 2.428000000000000 100 97 86
-1.349677919100090 0.842958967817568 2.408000000000000 98 95 84
-1.339028467080613 0.848660187315760 2.389000000000000 98 95 84
-1.328939512535845 0.854525332580490 2.371000000000000 98 95 84
-1.319411055465786 0.860569915299258 2.354000000000000 98 95 84
-1.309322100921018 0.866067950626492 2.336000000000000 98 94 85
-1.299233146376250 0.871379845703728 2.318000000000000 98 94 85
-1.289704689306191 0.876886689922501 2.301000000000000 98 94 85
-1.278494739812004 0.881058955154171 2.281000000000000 96 92 83
-1.270087277691364 0.886981550468518 2.266000000000000 98 95 84
-1.258877328197177 0.890766023512692 2.246000000000000 136 130 113
-1.245985886278862 0.893138359132263 2.223000000000000 155 145 122
-1.232533946885838 0.894865906672802 2.199000000000000 147 136 108
-1.221884494866361 0.898405831046017 2.180000000000000 143 132 104
-1.210674545372174 0.901331990715200 2.160000000000000 144 133 103
-1.201146088302115 0.905318689558990 2.143000000000000 146 135 107
-1.192178128706766 0.909557213731816 2.127000000000000 148 135 107
-1.183210169111417 0.913630279904644 2.111000000000000 160 147 119
-1.174802706990776 0.917975853656508 2.096000000000000 173 161 128
-1.165834747395427 0.921723174391839 2.080000000000000 176 163 133
-1.156866787800078 0.925305037127172 2.064000000000000 176 161 132
-1.149580320628856 0.930081873662111 2.051000000000000 172 157 128
-1.141733355982925 0.934265627743016 2.037000000000000 172 157 130
-1.133886391336995 0.938304606073923 2.023000000000000 168 153 126
-1.126599924165773 0.942667797608865 2.010000000000000 161 146 119
-1.119873954469261 0.947370714035344 1.998000000000000 158 143 116
-1.112587487298040 0.951470206882789 1.985000000000000 155 140 115
-1.105861517601528 0.955919765746770 1.973000000000000 151 136 111
-1.099135547905016 0.960245231110752 1.961000000000000 143 130 102
-1.092970075683213 0.964941444741270 1.950000000000000 137 126 98
-1.086804603461410 0.969523905996789 1.939000000000000 136 125 97
-1.081199628714317 0.974497797768843 1.929000000000000 141 128 100
-1.074473659017805 0.978347571382830 1.917000000000000 143 130 104
-1.067747689321292 0.982073251496819 1.905000000000000 141 128 102
-1.061021719624780 0.985674838110809 1.893000000000000 139 126 100
-1.053735252453559 0.988626466083266 1.880000000000000 137 124 98
-1.049251272655884 0.994098837950893 1.872000000000000 138 125 99
-1.041404308009954 0.996271243219320 1.858000000000000 139 126 100
-2.207424476032346 0.466628048551155 3.975000000000000 176 163 137
-2.174660188211992 0.479949919762694 3.916000000000000 177 164 136
-2.141895900391638 0.492661664599240 3.857000000000000 177 164 136
-2.113018900956749 0.505693599801558 3.805000000000000 176 163 135
-2.082475920785232 0.517773577641768 3.750000000000000 175 162 134
-2.054154248262553 0.529857767673135 3.699000000000000 173 160 132
-2.025832575739874 0.541414560329508 3.648000000000000 170 157 129
-1.999176883953823 0.552904709535500 3.600000000000000 168 155 127
-1.973076519079981 0.564057239945534 3.553000000000000 167 154 126
-1.946976154206139 0.574723737480573 3.506000000000000 167 154 124
-1.921986443156717 0.585242394798693 3.461000000000000 168 155 125
-1.896996732107294 0.595295701491817 3.416000000000000 170 157 127
-1.873117674882290 0.605242532468022 3.373000000000000 172 157 128
-1.850349271481705 0.615113911102305 3.332000000000000 178 163 134
-1.827580868081120 0.624561303611594 3.291000000000000 180 165 138
-1.807033772329372 0.634364506562035 3.254000000000000 178 163 136
-1.784265368928787 0.642984609071332 3.213000000000000 178 163 136
-1.763718273177039 0.652001886521782 3.176000000000000 178 163 136
-1.744281831249710 0.661057464005310 3.141000000000000 179 164 137
-1.724290062410172 0.669535470722305 3.105000000000000 179 164 135
-1.705964274307262 0.678303602801415 3.072000000000000 179 164 135
-1.687638486204352 0.686730477755529 3.039000000000000 180 165 136
-1.670423351925861 0.695278381742719 3.008000000000000 180 165 136
-1.652097563822951 0.703033083571840 2.975000000000000 181 166 137
-1.633216448807831 0.710205044071927 2.941000000000000 182 166 135
-1.616001314529340 0.717765370621629 2.910000000000000 181 165 134
-1.599896834075268 0.725508772954406 2.881000000000000 182 166 135
-1.582681699796777 0.732438290879114 2.850000000000000 181 165 134
-1.566021892430494 0.739309400382862 2.820000000000000 181 165 134
-1.549917411976422 0.746137613153150 2.791000000000000 182 166 134
