ply
format ascii 1.0
element vertex 726
property double x
property double y
property double z
property uchar red
property uchar green
property uchar blue
end_header
0.420703733947094 1.538515770783061 1.021254793216789 179 166 151
-1.644425092815643 0.253833509247455 2.688578526392821 117 114 83
-1.631096578168657 0.272985000940129 2.676036089295986 108 93 78
-1.635282782907579 0.292993464141100 2.675531714757667 112 59 57
-1.637709317311335 0.312973409313292 2.673808066910429 125 68 61
-1.647115165356415 0.333481482312002 2.676849509500794 92 62 56
-1.651264618662410 0.353746265715268 2.676275799897002 102 95 89
-1.654530703009195 0.374021436277443 2.675085786805532 129 92 88
-1.658658246807100 0.394439025955155 2.674470742835785 105 71 74
-1.659291893234391 0.414622127127566 2.671465153447374 96 64 71
-1.663399647799181 0.435177735375745 2.670812775211604 113 76 76
-1.667496094230764 0.455812211378476 2.670139063109534 108 103 101
-1.671581232529139 0.476525555135760 2.669444017141165 94 95 93
-1.678258523522455 0.497611934658401 2.670488545571045 43 43 35
-1.685787379350333 0.518909742581813 2.672089375989636 73 72 58
-1.689833645940805 0.539894194245371 2.671320994855863 86 81 56
-1.690405804393776 0.560506138833160 2.668199402569451 121 122 94
-1.694432281751134 0.581628609067185 2.667393687169654 67 76 73
-1.697583164490861 0.602707244878863 2.665986335315260 67 63 54
-1.694679094531354 0.622961470094863 2.660507531776277 106 84 75
-1.695226516442933 0.643745937895736 2.657339271657334 96 58 60
-1.699216949125690 0.665119799097396 2.656465554558708 85 54 59
-1.699750235870757 0.686002851591460 2.653270627106892 100 58 62
-1.703720879320400 0.707514731363587 2.652359575742242 100 84 86
-1.707680214636834 0.729105478890267 2.651427190511294 104 103 100
-1.714206259348492 0.751246714630047 2.652186378479421 58 56 46
-1.718140858123534 0.773009985369810 2.651207325415943 52 51 39
-1.722064148765368 0.794852123864126 2.650206938486165 70 65 45
-1.725976131273993 0.816773130112994 2.649185217690088 105 99 69
-1.726450757078044 0.838065309083798 2.645879620806844 85 73 63
-1.726919728815491 0.859396921931879 2.642563356990451 94 51 44
-1.729948342364906 0.881328315339655 2.640925332706696 127 82 67
-1.730403885694168 0.902753583646267 2.637583734924072 102 94 86
-1.734268515394985 0.925004848617324 2.636472678562867 68 74 76
-1.734709923557736 0.946528701617126 2.633104413447368 87 90 75
-1.735145677653885 0.968091988494205 2.629725481398721 109 106 69
-1.738982037021681 0.990540422851642 2.628561090371767 107 92 65
-1.736000223646369 1.011336863880190 2.622935616501977 98 74 70
-1.736419015542705 1.033018452389097 2.619524683653879 108 86 81
-1.733434375134090 1.053834610356283 2.613893876317514 89 78 62
-1.736390899334303 1.076268785699332 2.612119848636101 97 91 73
-1.733401311617410 1.097119448309135 2.606479707733230 77 78 76
-1.740579615315838 1.120862156623672 2.607419188296543 74 84 87
-1.747740956814453 1.144723166570038 2.608326668060407 72 74 73
-1.774341283776314 1.174472310543313 2.621751753302735 66 63 60
-1.811034585770993 1.207635999095231 2.641615123147015 64 61 58
-1.863706900257926 1.246216729905100 2.671669554649992 62 59 54
-1.910379389195014 1.283588569815847 2.697756537066588 61 58 53
-1.940106805956552 1.316130475082718 2.712880150439496 60 57 52
-1.901781031271669 1.558828387537589 2.644775963352479 9 9 9
-1.866053943084905 1.568130755295450 2.618333400541160 11 11 11
-1.791188875855536 1.561319657188700 2.567415352664985 20 20 20
-1.719778127530553 1.555019084728184 2.518813181675426 45 44 41
-1.658473075888247 1.552044330622441 2.476673295887408 76 74 66
-1.596435194810061 1.548030036693127 2.434201113706819 103 97 87
-1.538653017629716 1.545087672471645 2.394506441369856 111 105 93
-1.480964132548336 1.541494649275106 2.354987773429861 119 112 100
-1.432494748157121 1.541257548530885 2.321309753737153 121 114 100
-1.384103107181711 1.540478231974117 2.287778404375254 121 114 100
-1.338273935051571 1.540278979038406 2.255930628012567 118 111 97
-1.290035660632796 1.538430018560520 2.222688619212351 122 115 101
-1.243528786216167 1.536806745497794 2.190612549055304 128 121 107
-1.198749071251731 1.535438735258186 2.159694417341566 137 128 115
-1.154866860413017 1.533961753166480 2.129419256448380 138 130 114
-1.111880033425048 1.532390586926653 2.099783066275815 138 130 114
-1.073906476312187 1.532758367005146 2.073303350171971 142 134 117
-1.034347111412235 1.531885037328616 2.045932368953561 147 139 122
-0.996496530248014 1.531395130576352 2.019684658645721 152 141 125
-0.958706730299785 1.530481309643368 1.993551617869242 155 144 128
-0.920977711567550 1.529143574529664 1.967533246624120 153 142 126
-0.886591343924272 1.529095184138402 1.943620080335909 154 143 127
-0.852260103430384 1.528662313443695 1.919810916645908 156 145 129
-0.819622097989064 1.528721308835764 1.897095689800316 156 145 129
-0.787036392663832 1.528415540863027 1.874479132086358 155 144 128
-0.755320627889627 1.528193041189914 1.852453543893848 153 142 126
-0.724472683391471 1.528068597520402 1.831014925122854 153 142 126
-0.693674211976100 1.527599107424723 1.809669642016920 155 147 128
-0.664556253963440 1.527710209639691 1.789394295155808 159 151 132
-0.635484942000263 1.527495982367130 1.769206950493182 164 153 135
-0.607274382729880 1.527429103444765 1.749593241585634 165 154 136
-0.579922455877316 1.527524360576576 1.730549168333235 165 157 138
-0.552614348040933 1.527314005159496 1.711587763812745 167 159 140
-0.526974031957401 1.527772968276935 1.693672294937492 167 156 140
-0.500563428246739 1.527453641007756 1.675353861237554 163 152 136
-0.475005802887292 1.527335883670030 1.657594396259615 161 150 132
-0.451108901697440 1.527936737213416 1.640867533260475 161 150 132
-0.426441006122133 1.527764229604845 1.623736372070007 163 152 134
-0.401004236436346 1.526803573140340 1.606204912788141 167 156 140
-0.378839442006966 1.527625184864226 1.590645321798815 166 155 139
-0.355902946433805 1.527678364670816 1.574680099251517 166 155 139
-0.332196869991840 1.526948324856130 1.558313245246178 165 154 138
-0.311751460673073 1.528079420984390 1.543896925667079 164 153 137
-0.290533643452200 1.528447014430012 1.529073641163365 164 153 137
-0.270153962657705 1.529119691734935 1.514781324682131 165 154 136
-0.249003287477755 1.529019007887901 1.500084710009568 172 161 143
-0.227083738187325 1.528130175184933 1.484987797245608 177 166 148
-0.206001618564949 1.527551355575925 1.470420519137485 170 159 141
-0.187357578322554 1.528420144888051 1.457302141499283 167 156 138
-0.167942543694703 1.528515573048221 1.443779465669753 166 155 137
-0.147758634956372 1.527822852352455 1.429856491748826 162 154 137
-0.128406501819492 1.527479578627927 1.416452485550585 150 142 125
-0.111481139929384 1.528662781579085 1.404476045955967 149 138 122
-0.093784783653820 1.529072623378286 1.392095308170020 153 142 126
-0.075319553267778 1.528694316321553 1.379314272292676 154 143 127
-0.057680444416580 1.528704890113332 1.367041537204870 156 145 129
-0.040865336825251 1.529119132457604 1.355273102806670 152 141 125
-0.023282061881769 1.528740296711281 1.343105703683716 149 138 122
-0.006521374681504 1.528774987986769 1.331439938517081 157 146 130
0.009418845050521 1.529237993988048 1.320271807206835 158 147 131
0.026126525376373 1.528902992664071 1.308706044538478 153 142 126
0.042015151750635 1.529006164535204 1.297635248993221 168 157 141
0.057086844448285 1.529562297305425 1.287055420471135 177 166 148
0.072925290981436 1.529315493515731 1.276079293957581 168 157 141
0.088738294214869 1.528891237278294 1.265151168643202 166 155 139
0.102157743842828 1.530225131745542 1.255587941700190 168 157 141
0.117921980751801 1.529460758316598 1.244751818684226 166 155 139
0.131296904605254 1.530484111000295 1.235272593839768 165 154 138
0.145437875535883 1.530699597889419 1.225398404370487 164 153 137
0.161129316337329 1.529427513290544 1.214699618118824 164 153 138
0.174437804908184 1.529987517916245 1.205345729738875 165 154 139
0.188510220281239 1.529724869043395 1.195600876834033 167 156 141
0.200991173800598 1.530663896048292 1.186757955976909 167 154 140
0.214236054122158 1.530780269554636 1.177524070594892 165 154 139
0.226676722416963 1.531438330183940 1.168757151636458 167 156 141
0.239097601478654 1.531958372242777 1.160027566944049 170 159 144
0.252280287067568 1.531640973099082 1.150911017826678 173 162 146
0.264660880904705 1.531880048782326 1.142257435032960 175 162 145
0.277021685508728 1.531981105895103 1.133641186505264 178 165 148
0.287024274423553 1.534086775445540 1.126323168016752 178 163 146
0.298568852109288 1.534645722692064 1.118196553145583 178 165 148
0.310873116047270 1.534352441032079 1.109686973949385 173 160 145
0.321602880331369 1.535379136881669 1.102047326001454 174 161 146
0.332315682415655 1.536287531099431 1.094439678852972 175 162 147
0.342235580606395 1.537816480194704 1.087277664261774 175 162 147
0.351364695178566 1.539980771871466 1.080557282127928 174 163 147
0.362803259115475 1.539800333919061 1.072630672253314 173 162 146
0.374223447335921 1.539491735865508 1.064738729911437 178 167 151
0.386398374500335 1.538296404262829 1.056473156811036 181 170 154
0.397008696627423 1.538490059454959 1.049058847825892 185 174 158
0.408373757698480 1.537796981097963 1.041270908082224 184 173 157
0.415094476740341 1.541615909551560 1.035943425019264 183 170 155
0.427967602182684 1.539139505626993 1.027410890491836 179 166 151
-1.630504065241814 0.255257185082939 2.703067800728190 121 118 87
-1.617221228606447 0.274414491583060 2.690482787029187 104 89 74
-1.619632698345973 0.294337307770274 2.688795094516115 118 65 63
-1.622035686985594 0.314319274773403 2.687091401603318 128 71 64
-1.631386594914360 0.334832065377630 2.690179405707378 98 68 62
-1.635504653868175 0.355099544555479 2.689632302682841 113 106 100
-1.638743268156802 0.375377073920413 2.688465570348219 125 88 84
-1.642839417602528 0.395797359372708 2.687877132957726 96 62 65
-1.643457366853728 0.415981808432409 2.684884846858943 93 61 68
-1.650997792094354 0.436874533540953 2.686636256577844 113 76 76
-1.655060017140455 0.457531422256905 2.685983817588454 103 98 96
-1.658246331312996 0.478173714986644 2.684718416122198 72 73 71
-1.665742230779115 0.499376981878738 2.686385823742545 51 51 43
-1.673221168045422 0.520698550402662 2.688021230563444 80 79 65
-1.673783283388907 0.541272409000466 2.684923608499807 90 85 60
-1.674339744665788 0.561885701475547 2.681815319503023 111 112 84
-1.678334827670967 0.583010867484153 2.681036210682481 60 69 66
-1.681458240352536 0.604091862098590 2.679652139584935 98 94 85
-1.681992792121327 0.624857960848116 2.676502516222194 130 108 99
-1.679085895128518 0.645131903002754 2.671018379216636 103 65 67
-1.683044933459096 0.666508459978997 2.670171268697265 85 54 59
-1.686992663656464 0.687963884709792 2.669302824311594 105 63 67
-1.690929085720625 0.709498177195140 2.668413046059625 116 100 102
-1.694854199651577 0.731111337435040 2.667501933941356 93 92 89
-1.697912590567201 0.752645821638154 2.665995193112589 42 40 30
-1.705234627485246 0.775061680256492 2.667334592538585 60 59 47
-1.705707691279717 0.796256622421397 2.664068966277843 80 75 55
-1.709588279436163 0.818180324444847 2.663073852061020 109 103 73
-1.713457559459401 0.840182894222850 2.662057403977899 79 67 57
-1.713908006987455 0.861535571896859 2.658749109984558 100 57 50
-1.716906323445412 0.883489041046033 2.657129032991076 120 75 60
-1.717343342565281 0.904935374178574 2.653795405031504 92 84 76
-1.721173750880616 0.927209051862850 2.652705621782979 49 55 57
-1.721596634833976 0.948753969688582 2.649345326490534 72 75 60
-1.722013864720733 0.970338321391590 2.645974364264938 107 104 67
-1.722425440540885 0.991962106971874 2.642592735106193 116 101 74
-1.722831362294433 1.013625326429433 2.639200439014298 76 52 48
-1.719846721885818 1.034441484396620 2.633569631677933 88 66 61
-1.716862081477204 1.055257642363806 2.627938824341567 92 81 65
-1.713877441068590 1.076073800330992 2.622308017005201 80 74 56
-1.716801547902367 1.098544839119417 2.620547936514130 78 79 77
-1.713811960185474 1.119395501729219 2.614907795611258 65 75 78
-1.714193145397629 1.141231244399863 2.611468831686834 61 63 62
-1.747406149026706 1.172903191692701 2.629428675070020 62 59 56
-1.783923490302235 1.206023567104375 2.649464358967146 62 59 56
-1.840548147270018 1.245872675834576 2.682485765872102 60 57 52
-1.886154183969100 1.282963905486401 2.708233344599170 61 58 53
-1.903146815720848 1.311415775949466 2.715342920808194 61 58 53
-1.868341088464624 1.554165795227235 2.649678613705657 10 10 10
-1.838595224538020 1.565671834656433 2.626825066868384 13 13 13
-1.764076127694489 1.558772606157011 2.575636998664947 16 16 16
-1.696312711875564 1.553744953086079 2.528877951751278 35 34 31
-1.638602247144442 1.552086595909070 2.488610432974882 77 75 67
-1.577673669282581 1.548378443984762 2.446429744415078 106 100 90
-1.519325471233595 1.545044338741279 2.405998607720744 114 108 96
-1.465204167754101 1.542847928115317 2.368344276215701 119 112 100
-1.413647695404322 1.541134007332689 2.332410162509964 120 113 99
-1.367124766181698 1.541055442150427 2.299735146539302 118 111 97
-1.321501070857378 1.540828808210614 2.267717094144748 117 110 96
-1.273480046126489 1.538951455813157 2.234294831845443 122 115 101
-1.227182572809703 1.537300464774506 2.202045159834122 130 123 109
-1.182604410357064 1.535905410502618 2.170960077910923 137 128 115
-1.138919827736125 1.534401721350454 2.140521292630682 136 128 112
-1.097768272120250 1.533602337601304 2.111742723650784 138 130 114
-1.058323305718664 1.533147616842788 2.084104744159419 145 137 120
-1.020580687981415 1.533067134482864 2.057599353956729 149 141 124
-0.981261524561769 1.531735009954953 2.030198713727944 153 142 126
-0.942005969391420 1.529959254307683 2.002918076497094 154 143 127
-0.907717522065628 1.530282202318776 1.978771200536807 155 144 128
-0.871851115540790 1.529363366631200 1.953726407817140 155 144 128
-0.837674336030428 1.528907495566087 1.929790203786559 156 145 129
-0.805182942984591 1.528944164531394 1.906954588245202 156 145 129
-0.774372695853325 1.529502948935079 1.885211560993207 155 144 128
-0.741170773382096 1.528371581003845 1.862074990769610 153 142 126
-0.710461592691377 1.528225484851217 1.840522634947665 154 143 127
-0.679801885083444 1.527734342272423 1.819063614790778 158 150 131
-0.650814842290176 1.527824465947920 1.798681182523529 159 151 132
-0.621874445546391 1.527589260135889 1.778386752454764 164 153 135
-0.593790877201379 1.527501739645877 1.758669283963486 166 155 137
-0.564943065798236 1.526620804093447 1.738549524925046 166 158 139
-0.539376975775127 1.527346032168958 1.720462938667948 165 157 138
-0.513851877734898 1.527785364634218 1.702453687676184 165 154 138
-0.487560416361561 1.527446069741037 1.684038146037329 160 149 133
-0.462118009045416 1.527308681751131 1.666184898942879 158 147 129
-0.438328477310822 1.527890578585984 1.649370905472042 160 149 131
-0.413771875484795 1.527698777297058 1.632149287987469 163 152 134
-0.390059380407681 1.527743387554022 1.615480631480797 167 156 140
-0.366385050280144 1.527521819139371 1.598883976772884 165 154 138
-0.343551999868219 1.527556379209251 1.582834949576295 165 154 138
-0.321558108896927 1.527861855467637 1.567329549791100 165 154 138
-0.301202958340677 1.528985201243973 1.552836736296645 163 152 136
-0.278477335194228 1.528270517645604 1.536990380829900 163 152 136
-0.258189326678901 1.528925586129285 1.522624237166596 165 154 136
-0.237134248072141 1.528806956489186 1.507850469489557 168 157 139
-0.216911968081086 1.529003606149531 1.493608328924118 168 157 139
-0.195924031515249 1.528416699216777 1.478961231078230 169 158 140
-0.177362401447326 1.529278412120625 1.465773011169485 168 157 139
-0.156440193405761 1.528233086364535 1.451249916421463 164 153 135
-0.137940051312156 1.528665955853005 1.438177699410720 158 150 133
-0.118674252643769 1.528315268748375 1.424700525119529 150 142 125
-0.101823452340088 1.529492069234901 1.412660894899182 151 140 124
-0.082617728129370 1.528722397184213 1.399297056772706 154 143 127
-0.064236321434450 1.528327155249882 1.386448845358106 154 143 127
-0.046677111980353 1.528321131135887 1.374112260555450 155 144 128
-0.029937979492102 1.528719112546207 1.362283302264808 150 139 123
-0.012434603945719 1.528323678894110 1.350052053427004 151 140 124
0.002669321919119 1.529564175995677 1.339229014593883 160 149 133
0.020118277074436 1.528789191274796 1.327100434987645 159 148 132
0.035172023098164 1.529679712715537 1.316372065186227 156 145 129
0.052566557862417 1.528525176925873 1.304346154811554 170 159 143
0.065994991879289 1.530327223343094 1.294605037334644 175 164 146
0.083336519769130 1.528802994953964 1.282679129458250 171 160 144
0.097505167061064 1.529644032330344 1.272581055900065 169 158 142
0.112436643894479 1.529681796174986 1.262083358528008 169 158 142
0.126559351895255 1.530202433298496 1.252071953801664 167 156 140
0.141443475920861 1.529909938420950 1.241663591994735 165 154 138
0.155520244630480 1.530110175291591 1.231738856100232 165 154 138
0.169574397073682 1.530152676653127 1.221856787938328 165 154 139
0.182824021234200 1.530707626701487 1.212453012222276 164 153 138
0.196833647902896 1.530439586279473 1.202654946158925 164 153 138
0.209259661305940 1.531373895678851 1.193765463788104 166 153 139
0.222445677217163 1.531485214607854 1.184481691069985 166 155 140
0.236389575361586 1.530758755362503 1.174807628104499 167 156 141
0.248754100790312 1.531264221346502 1.166034148631681 171 160 145
0.260321165519607 1.532331428363921 1.157725627938277 173 162 146
0.272646819240430 1.532565786441646 1.149025483630864 175 162 145
0.284952683728138 1.532662125948904 1.140362673589473 176 163 146
0.294912105408716 1.534764088809291 1.133008071054485 178 163 146
0.307180511705172 1.534599178879595 1.124415929445211 176 163 146
0.318654991093826 1.535020656156615 1.116282079782134 175 162 147
0.330111094766017 1.535313973332489 1.108182897651792 177 164 149
0.340003374405671 1.536947658900221 1.100954964947957 175 162 147
0.350652122761876 1.537733707824280 1.093339408730042 174 161 146
0.359741287635496 1.539889700548156 1.086587101738771 175 164 148
0.370357525108727 1.540449004677877 1.079032880386467 179 168 152
0.382496594631616 1.539382044805487 1.070684744872990 181 170 154
0.394615874921391 1.538177066362630 1.062373943625538 182 171 155
0.404409915153800 1.539125588312688 1.055331348885178 182 171 155
0.415723960402564 1.538428129321995 1.047500173450221 184 173 157
0.423184279477701 1.541471000849054 1.041741785616678 183 170 155
0.435231470418274 1.539763240470925 1.033566987766883 181 168 153
-1.620041151643539 0.256840525331046 2.720008864217405 119 116 87
-1.601594689808976 0.275756313381297 2.703726211853194 103 81 74
-1.607450770869407 0.295878901802055 2.704486293205630 122 64 62
-1.606362056659854 0.315665140233513 2.700374736296206 130 72 67
-1.615658024472304 0.336182648443259 2.703509301913963 92 67 65
-1.619744689073940 0.356452823395690 2.702988805468680 98 84 83
-1.622955833304411 0.376732711563384 2.701845353890906 120 81 78
-1.627020588397956 0.397155692790260 2.701283523079668 89 67 69
-1.627622840473067 0.417341489737253 2.698304540270512 96 60 64
-1.635116174185423 0.438238258507670 2.700095859858295 109 82 79
-1.642592545697968 0.459253328909916 2.701855178646629 119 120 116
-1.645748562779048 0.479917697381052 2.700607724470645 88 89 83
-1.653194543683596 0.501144724873658 2.702309708493300 72 73 61
-1.657186502669615 0.522075417270466 2.701610540917761 76 73 60
-1.661167153522425 0.543084977421826 2.700890039475922 101 92 51
-1.661705090589914 0.563719334722835 2.697789720302189 104 104 82
-1.664808807554908 0.584748466558777 2.696443596994572 68 74 76
-1.668759067799721 0.605969983800497 2.695665760787054 94 90 83
-1.669275095359119 0.626757147375952 2.692524107247367 140 103 99
-1.666365371333009 0.647050806469229 2.687034636775233 110 71 72
-1.670290188278104 0.668449776158691 2.686208799368542 93 64 70
-1.670789253637690 0.689355241365975 2.683035145029405 116 75 75
-1.674694281349671 0.710892229625905 2.682171973356690 103 102 99
-1.678588000928444 0.732508085640387 2.681287467817676 85 84 81
-1.685024884138305 0.754676451698906 2.682114490412179 48 47 33
-1.688893867175685 0.776464830926471 2.681183317040635 81 78 63
-1.692751542079858 0.798332077908589 2.680230809802792 104 96 59
-1.696597908850821 0.820278192645260 2.679256968698650 115 112 75
-1.697038313269391 0.841592784329284 2.675972644928085 71 52 50
-1.700016934010770 0.863494390699962 2.674390515724532 127 72 53
-1.700443910021154 0.884902637842518 2.671080857987738 117 80 65
-1.704251405084215 0.907119860485462 2.670033681718192 68 71 66
-1.708047592014069 0.929415950882959 2.668965171582347 48 59 57
-1.708451951758037 0.950981933534620 2.665612846112953 78 82 62
-1.705472965416026 0.971758657624530 2.659992705709737 106 103 52
-1.709243709046161 0.994232200469770 2.658876194374718 110 100 67
-1.706259068637547 1.015048358436956 2.653245387038352 89 55 58
-1.706643639148401 1.036752359659084 2.649855727302935 90 56 57
-1.696923403934152 1.055773114177750 2.639747958231246 86 77 64
-1.697305147411703 1.077496832338515 2.636352965029254 76 70 50
-1.690959777183527 1.097365996234846 2.628497010491664 71 65 51
-1.691335866594474 1.119129148272887 2.625091350356522 57 54 53
-1.694222608753538 1.141671555149304 2.623335883489288 39 38 37
-1.714698762074239 1.169565231966496 2.633159770196917 47 44 41
-1.754394511625251 1.203633651420717 2.655580915048319 51 48 45
-1.793181523163797 1.237943458119198 2.677316436534976 56 53 50
-1.852796406493232 1.279404286425409 2.712625786368361 58 55 52
-1.865532107863565 1.306414322952036 2.717105750112377 61 52 49
-1.827603121585148 1.546561125313349 2.649664307000901 12 12 12
-1.805443410720732 1.560891998859955 2.631520243619315 14 14 14
-1.737883609878361 1.556552801012480 2.584308444394577 12 12 12
-1.672910084924935 1.552465429894810 2.538889508668621 21 20 17
-1.618762812752818 1.552126165421116 2.500520963483102 84 80 73
-1.558111762505832 1.548374708530577 2.458112800821395 109 102 90
-1.500029319189652 1.544998309236331 2.417464167492378 116 109 95
-1.446154148972854 1.542761289418719 2.379608968464685 119 112 98
-1.396475650480558 1.541737587597634 2.344527203238661 119 112 98
-1.350162122357776 1.541631304439447 2.311678585413723 119 112 98
-1.304743903839275 1.541377289495530 2.279490256987301 119 112 98
-1.256940128796273 1.539471545178502 2.245887741188908 124 117 103
-1.210852056579329 1.537792836163926 2.213464467323312 130 123 109
-1.166475446638487 1.536370737859758 2.182212435190652 136 127 114
-1.124623624612271 1.535629309700774 2.152637263658773 137 129 113
-1.082022791955154 1.534015261752998 2.122677809623625 140 132 115
-1.042755832301230 1.533535518793139 2.094892834857241 147 139 122
-1.005183372723597 1.533430688175517 2.068247101024344 150 142 125
-0.966042216051615 1.532073541446263 2.040699465520539 154 143 127
-0.928592732422621 1.531111023997883 2.014285737483647 155 144 128
-0.892830681286663 1.530572711238336 1.988997916713803 157 146 130
-0.857126584333397 1.529630201236707 1.963819432008743 157 146 130
-0.823104265806563 1.529151329801188 1.939756187637583 158 147 131
-0.790759485156208 1.529165672339734 1.916800183400460 158 147 131
-0.760088001832380 1.529702804260303 1.894943419097513 154 143 127
-0.727846407897549 1.528997478538558 1.872182086390372 154 143 127
-0.696466199167374 1.528381024294742 1.850017041482848 158 147 131
-0.665945255366878 1.527868229232831 1.828444284275009 159 151 132
-0.637089127793002 1.527937374368858 1.807954766601622 159 151 132
-0.608279646268611 1.527681190017357 1.787553251126719 163 152 134
-0.579516810793701 1.527099676178326 1.767239737850302 168 157 139
-0.551606172665218 1.526671113867798 1.747505178607133 165 157 138
-0.526155300685411 1.527376711291130 1.729324810233523 164 156 137
-0.500745420688484 1.527796413104210 1.711221777125249 164 153 137
-0.474573101652473 1.527437150587027 1.692709127547476 161 150 134
-0.449245912379631 1.527280131944942 1.674762098336515 158 147 131
-0.425563750100294 1.527843072071262 1.657860974393981 159 148 132
-0.401118442023547 1.527631977101979 1.640548900615305 163 152 136
-0.377513316401690 1.527657630650409 1.623793113636935 163 152 136
-0.353946355729411 1.527417105527225 1.607109328457325 164 153 137
-0.331216750478721 1.527433045860393 1.590976496611447 165 152 135
-0.309322380374643 1.527720239353892 1.575390617999368 165 154 138
-0.289058902097560 1.528825976308985 1.560823977322843 165 154 138
-0.266436724112347 1.528092672973905 1.544893817206807 163 152 134
-0.246240387876187 1.528730132636344 1.530453846361434 165 152 135
-0.225280905842618 1.528593557203179 1.515602925679918 167 156 138
-0.205150298130730 1.528772598042281 1.501286957932409 164 153 135
-0.184257958138083 1.528167745316462 1.486562707082046 163 152 134
-0.165780151761282 1.529012523342714 1.473307311636044 162 154 135
-0.144953540292908 1.527949251793558 1.458707063883545 160 152 133
-0.128121467667938 1.529509059353554 1.446498907072615 155 144 126
-0.108942003468046 1.529150958868825 1.432948564688474 150 139 123
-0.090584346006582 1.529157767002956 1.419919841571903 154 141 126
-0.072256372394788 1.528957547281388 1.406947119854367 153 142 126
-0.054747378488121 1.529141953117319 1.394490683937827 153 142 126
-0.037266654914473 1.529129189566869 1.382087582687034 152 141 125
-0.020602084012648 1.529520768512557 1.370195433770662 148 140 123
-0.003177194346716 1.529118595424005 1.357897668484722 153 142 126
0.013432956164045 1.529130623300909 1.346108188799915 160 149 131
0.029230487794609 1.529571639847249 1.334822994616310 158 150 131
0.045787631430957 1.529213975124689 1.323133517429781 156 145 127
0.061533569703759 1.529295157540883 1.311945659011166 170 159 141
0.076470422887994 1.529829974799810 1.301255419260534 176 165 147
0.092166181319685 1.529561181555178 1.290162229873622 175 162 145
0.107836496451658 1.529114935862803 1.279117041685884 171 160 144
0.121136803742292 1.530428862706049 1.269456706803955 169 158 142
0.136758352549806 1.529642499822166 1.258503520914632 170 159 143
0.150014134065933 1.530645884881862 1.248927188131257 168 157 141
0.165586916548986 1.529519404806472 1.238066004540350 166 155 139
0.178019477810035 1.530877840015710 1.229013957757831 165 154 139
0.191210237560216 1.531427735486729 1.219560294705676 165 154 139
0.205157075524552 1.531154303515550 1.209709015483816 164 153 138
0.219081297222472 1.530723136035267 1.199900403994555 164 153 138
0.230655300312167 1.532190159661071 1.191439311545079 167 156 141
0.244536409752231 1.531458308866556 1.181712035421083 171 160 145
0.256845995064642 1.531959057245037 1.172891994434569 172 161 146
0.268362043971646 1.533021883628759 1.164540238049877 172 161 145
0.280632757576154 1.533251524100966 1.155793532228767 176 163 148
0.292883681947548 1.533343146002705 1.147084160673681 175 162 145
0.304343190188511 1.534011633613666 1.138839073620485 180 165 148
0.315784322713010 1.534551961123479 1.130628654100026 178 165 148
0.327207079521047 1.534964128532144 1.122452902112303 176 163 148
0.337072447367941 1.536707479806996 1.115157717929187 176 163 148
0.347691066395688 1.537607786701011 1.107470251042942 174 161 146
0.358292723223623 1.538389791963197 1.099814784956145 175 164 148
0.367342645157018 1.540542414968845 1.093029219740806 177 166 150
0.378678470691018 1.540348286514389 1.085017471850258 179 168 152
0.389995920508554 1.540025997958785 1.077040391492447 180 169 153
0.402060260682014 1.538816301910409 1.068683028731299 181 170 154
0.411811133680176 1.539761117170416 1.061603849944464 178 167 151
0.423074163106648 1.539059277546028 1.053729438818218 181 170 154
0.430503087829605 1.542099453298504 1.047944444405420 184 173 157
0.443257777692948 1.539608010984595 1.039313468572431 180 169 153
-1.664276535501808 0.240780607304717 2.779188143656477 139 138 122
-1.611260203504771 0.258507741447337 2.738215732152424 121 118 89
-1.589423437953756 0.277277516530794 2.719416092364471 103 81 74
-1.595237449040661 0.297423191608418 2.720204098474400 123 65 63
-1.592413242771936 0.317120413307891 2.714875965366155 132 74 69
-1.603376259872594 0.337771763676062 2.719269653408092 92 67 65
-1.603984724279705 0.357806102235901 2.716345308254518 109 95 94
-1.607168398452018 0.378088349206354 2.715225137433592 135 96 93
-1.611201759193384 0.398514026207812 2.714689913201609 94 72 74
-1.615223811801541 0.419018570963823 2.714133355103327 102 66 70
-1.619234556276491 0.439601983474386 2.713555463138746 114 87 84
-1.626663836260767 0.460621097538505 2.715354691795961 95 96 92
-1.633219399892921 0.481664375550043 2.716523639398348 69 70 64
-1.637191272659968 0.502518895966880 2.715872412268363 68 69 57
-1.641151837293807 0.523452284138270 2.715199851272078 88 85 72
-1.648519629303762 0.544900241617768 2.716883077031291 136 127 86
-1.645623333685836 0.565100245252513 2.711418940525388 111 111 89
-1.648699580592673 0.586131735891214 2.710096097974619 52 58 60
-1.652618446485306 0.607355948907516 2.709344868346356 95 91 84
-1.653118776868615 0.628144460370262 2.706216518096296 132 95 91
-1.653613453185319 0.648972405710285 2.703077500913086 103 64 65
-1.654102475435420 0.669839784927583 2.699927816796726 85 56 62
-1.657984589895127 0.691320318146180 2.699107252102990 110 69 69
-1.661855396221626 0.712879719119330 2.698265353542955 113 112 109
-1.664866621362516 0.734364699346708 2.696819841260964 96 95 92
-1.672105783357230 0.756709777534240 2.698260394291024 64 63 49
-1.675940545009128 0.778520569475026 2.697350494032159 80 77 62
-1.679763998527819 0.800410229170364 2.696419259906996 103 95 58
-1.683576143913301 0.822378756620255 2.695466691915533 115 112 75
-1.686532241904801 0.844248217151075 2.693917177035334 80 61 59
-1.686946347772398 0.865638095242284 2.690626156054742 138 83 64
-1.690728102549883 0.887818579782534 2.689616253297601 135 98 83
-1.687757597307779 0.908536153056530 2.684012113294108 75 78 73
-1.694890038795340 0.931625545677650 2.685251327960968 57 68 66
-1.691911052453330 0.952402269767560 2.679631187557752 95 99 79
-1.692294060954605 0.974009034183788 2.676281498444836 125 122 71
-1.696030583199258 0.996504989742248 2.675186260222497 96 86 53
-1.689686774980661 1.016471390444479 2.667290335062405 83 49 52
-1.686702134572046 1.037287548411665 2.661659527726039 105 71 72
-1.680366807453356 1.057194798297981 2.653779602965672 91 82 69
-1.677384994078043 1.077991239326529 2.648154129095881 72 66 46
-1.664368082772312 1.095942654480637 2.635813303753534 82 76 62
-1.661394750496906 1.116679944693271 2.630203830283467 58 55 54
-1.629201855673900 1.128774196345955 2.605101250683505 51 50 49
-1.622916708396320 1.148331470571445 2.597315994954841 53 50 47
-1.801085035858085 1.544476384105326 2.658569158634509 12 12 12
-1.784783166366550 1.561060472355228 2.644103218966024 14 14 14
-1.717532287491235 1.556675273766939 2.596637339060129 11 11 11
-1.653677327858828 1.552883512241310 2.551505912043430 42 41 38
-1.598954772713373 1.552163039158580 2.512404887412067 105 101 94
-1.538581250081262 1.548368277301810 2.469769250648456 108 101 89
-1.484041745342114 1.546371132442262 2.431013567977813 116 109 95
-1.427135524543788 1.542671954947540 2.390847054134415 118 111 97
-1.379319302732883 1.542339819975287 2.356630940677729 118 111 97
-1.333215175709944 1.542205818841175 2.323608720998517 121 114 100
-1.286369496141754 1.541174214773149 2.290205559826849 118 111 97
-1.240415908642147 1.539990286656557 2.257467347242746 125 118 104
-1.196167348347250 1.539053784724700 2.225909694769679 133 126 112
-1.150362180096000 1.536834717329607 2.193451489180754 136 127 114
-1.107072853910609 1.535277614056529 2.162685455126405 138 130 114
-1.066293008966147 1.534426838017401 2.133599592306840 143 135 118
-1.027204056059886 1.533922072856199 2.105667622265435 147 139 122
-0.989801754641871 1.533792893980880 2.078881544802331 149 141 124
-0.950838604717550 1.532410725050281 2.051186914023507 153 142 126
-0.913559279248173 1.531423859344204 2.024632842356408 157 146 130
-0.877959537683787 1.530861872270605 1.999211329601171 158 147 131
-0.842417750302094 1.529895687954924 1.973899152910719 158 147 131
-0.808549892758787 1.529393816148997 1.949708868198980 159 148 132
-0.776351724503915 1.529385832260783 1.926632475266092 157 146 130
-0.745819004987523 1.529901311698236 1.904661973912193 154 143 127
-0.713724023448175 1.529173659549730 1.881780252509286 156 145 129
-0.682486502819460 1.528535215850974 1.859498144728404 160 149 133
-0.652104322826402 1.528000768305949 1.837811650469614 158 150 131
-0.624986605027709 1.528976595470255 1.818211602904293 158 150 131
-0.594700544166919 1.527771772011534 1.796706446509047 163 152 134
-0.567673291433890 1.528116657139421 1.777277069874122 167 156 138
-0.538284976708289 1.526720075754857 1.756447528999591 163 155 136
-0.512949322771785 1.527406042526010 1.738173378509471 165 157 138
-0.487654660818161 1.527806113686911 1.719976563284686 163 152 136
-0.461601484119474 1.527426883545727 1.701366805767995 159 148 132
-0.436389512889935 1.527250234251462 1.683325994440524 157 146 130
-0.412814720065855 1.527794217669248 1.666337740026293 159 148 132
-0.388480705738389 1.527563829019609 1.648935209953513 162 151 135
-0.364982949571790 1.527570525859506 1.632092292503446 162 151 135
-0.343115304227397 1.528347147758047 1.616288598300182 164 153 137
-0.320487730621291 1.528354326823824 1.600069295071726 164 151 134
-0.298691467867775 1.528633096021754 1.584400270899477 166 155 139
-0.276930543030534 1.528665403486707 1.568797915059413 164 153 137
-0.254411810206555 1.527913480414915 1.552783950294087 162 151 133
-0.234307146249563 1.528533331256111 1.538270152266644 164 151 134
-0.215026725561906 1.529474064576056 1.524293299628971 164 153 135
-0.194986376612535 1.529645355063234 1.509900837966105 164 153 135
-0.174188219676428 1.529032415013668 1.495096767377977 164 153 135
-0.155792823474100 1.529870116631642 1.481771529661433 162 154 135
-0.135060395062264 1.528798757758741 1.467091462171169 160 152 133
-0.116726486834254 1.529207615961335 1.453882227352628 150 139 121
-0.098422262455916 1.529409446308229 1.440728993933121 151 140 124
-0.080934507005331 1.529986380715127 1.428098038870304 154 141 126
-0.062688943568009 1.529779084585281 1.415055474882224 152 141 125
-0.045258435541791 1.529956750984757 1.402532522517547 153 142 126
-0.027856197848592 1.529937247997852 1.390062904818618 151 140 124
-0.011266188533195 1.530322424478907 1.378107565276516 151 143 126
0.006080215252289 1.529913511953900 1.365743283542440 155 144 128
0.022615804176622 1.529919137366171 1.353890613231903 159 148 130
0.039906374054390 1.529120815303061 1.341631667462679 158 150 131
0.054825280564702 1.529990021232509 1.330792886432716 158 147 129
0.070500581545100 1.530065138155893 1.319545163210778 169 158 140
0.085370721730953 1.530594226893834 1.308798384479230 177 166 148
0.100995842870240 1.530319368156392 1.297645330288995 175 162 145
0.116595520709808 1.529867056971207 1.286540277297934 173 162 146
0.131392158029808 1.529883505304557 1.275932168697332 168 157 141
0.145387875105215 1.530383500860419 1.265817004387257 167 156 140
0.158584792211005 1.531381831342773 1.256190784267779 168 157 141
0.174086937401654 1.530249285774574 1.245269735873549 165 154 138
0.188014098919487 1.530271145568462 1.235283908127913 165 154 139
0.201144580742679 1.530806127992820 1.225783024472943 165 154 139
0.213480503146209 1.531869020751628 1.216763084808708 165 154 139
0.227341936139769 1.531432461722180 1.206901260160937 164 153 138
0.240408809713667 1.531523813027181 1.197520379503900 169 158 143
0.252683244142877 1.532157862370610 1.188616442737667 170 159 144
0.265708418975569 1.531958388830698 1.179314230712609 171 160 145
0.277942568180225 1.532311471798534 1.170486295845067 172 161 145
0.290156928151768 1.532526536195902 1.161695695243549 175 162 147
0.300814680166957 1.534024166056507 1.153805647757889 173 160 143
0.312223172585628 1.534688273033771 1.145517325013405 180 165 148
0.323613289287836 1.535224219909889 1.137263669801656 177 164 147
0.334985030273581 1.535632006684858 1.129044682122645 175 162 147
0.345572813214545 1.536641642314170 1.121286637934712 175 162 147
0.355378758385704 1.538267914501801 1.113985537137926 174 161 146
0.365933323685370 1.539045876102114 1.106290161182247 176 165 149
0.374944002678541 1.541195129389535 1.099471337742840 177 166 150
0.386228812390248 1.540996620301382 1.091416354161004 179 168 152
0.396733197848802 1.541424606240869 1.083815647237028 177 166 150
0.409504646442638 1.539455537458188 1.074992113837060 176 165 149
0.419212352206552 1.540396646028144 1.067876351003749 176 165 149
0.430424365810732 1.539690425770061 1.059958704186215 178 167 151
0.437821896181509 1.542727905747955 1.054147103194162 183 172 156
0.450517721634516 1.540231408856704 1.045466240025071 184 173 157
-1.642291179299110 0.241903467853834 2.788387692220076 139 139 119
-1.595531633062715 0.259858324512966 2.751545628359009 105 101 78
-1.577220791746357 0.278801415454873 2.735132579455001 99 70 66
-1.579555970126875 0.298769731012173 2.733494084812103 131 77 69
-1.576731763858151 0.318466952711647 2.728165951703858 122 73 65
-1.587631992254448 0.339123694628982 2.732612852904303 87 72 67
-1.588224759485470 0.359159381076112 2.729701811040357 107 90 87
-1.591380963599626 0.379443986849324 2.728604920976279 120 81 78
-1.595382929988812 0.399872359625364 2.728096303323551 105 77 78
-1.599373588244790 0.420379600155957 2.727566351804523 113 69 72
-1.603352938367560 0.440965708441103 2.727015066419196 105 81 77
-1.610735126823565 0.461988866167095 2.728854204945294 126 127 123
-1.620658842654614 0.483413749493615 2.732466160905304 71 70 67
-1.624596494036179 0.504290682623672 2.731836206887999 76 77 65
-1.628522837284536 0.525246483508282 2.731184919004394 81 79 61
-1.632437872399685 0.546281152147445 2.730512297254490 128 115 64
-1.632941588081693 0.566937922161675 2.727433251193438 103 107 87
-1.635987537897069 0.587991488541773 2.726128355932941 52 53 59
-1.639872182404221 0.609238114271295 2.725398399417358 85 77 74
-1.640353988578138 0.630047690559971 2.722278018990350 133 99 92
-1.640830140685450 0.650896700725922 2.719146971630193 107 77 73
-1.641300638726158 0.671785144769150 2.716005257336885 89 57 62
-1.645148531800384 0.693288090700968 2.715205965755829 124 79 78
-1.648985116741402 0.714869904387338 2.714385340308473 109 106 105
-1.651966044790833 0.736376960356113 2.712957775316756 87 89 80
-1.659155288223974 0.758745799144156 2.714432904749123 70 69 53
-1.662955828490391 0.780579003798162 2.713544277602939 85 85 66
-1.666745060623599 0.802491076206720 2.712634316590455 133 122 68
-1.670522984623600 0.824482016369831 2.711703021711672 118 113 77
-1.670085525656634 0.845660466060269 2.707855698742369 81 55 58
-1.673844367181845 0.867784495559187 2.706888402964206 140 83 57
-1.674234294773446 0.889234872353601 2.703594684873517 155 128 111
-1.674618568298443 0.910724683025292 2.700290299849677 85 91 89
-1.678349139490634 0.933045881910591 2.699269669405767 63 73 68
-1.675370153148624 0.953822606000501 2.693649529002550 97 100 75
-1.675737464473809 0.975430718304020 2.690313143179262 133 129 70
-1.676099121732389 0.997078264484815 2.686966090422824 113 99 76
-1.669773837723184 1.017023600361116 2.679062195439680 105 54 63
-1.663454207780583 1.036929502360141 2.671168967389685 116 82 75
-1.660475221438572 1.057706226450051 2.665548826986468 98 100 81
-1.664160560097931 1.080342896353560 2.664442861077361 75 70 47
-1.654517248754551 1.099259674629871 2.654308546180036 82 79 68
-1.634905720242138 1.115189364799402 2.637456304207298 52 58 60
0.127662577095477 0.676600035071181 1.434665916993734 240 171 155
0.125834396311471 0.688019419333456 1.434085600022984 214 145 129
0.108331810205846 0.704925818824146 1.443937106914057 163 107 94
0.096633651660051 0.720017454810874 1.449889379055246 132 90 80
-1.767276774646637 1.539448891350124 2.662550401565368 12 12 12
-1.764154316364549 1.561226250075918 2.656659587733480 15 15 15
-1.697212359456288 1.556795050746816 2.608939627146425 31 32 30
-1.627110689078765 1.550231145253989 2.559287920773381 50 49 44
-1.579178127026109 1.552197217121463 2.524262204761778 90 83 75
-1.519082132008872 1.548359150298461 2.481399093896264 110 103 91
-1.464792684826442 1.546321059275441 2.442439217880565 115 108 94
-1.408148294466900 1.542579924701778 2.402058533224890 118 111 97
-1.362178652161299 1.542940704465650 2.368721374827171 119 112 98
-1.314657423454087 1.542037961761279 2.334471678202204 122 115 101
-1.269651572063875 1.541719326339838 2.301945464445334 121 114 100
-1.223907385664111 1.540507680247321 2.269033650006957 127 120 106
-1.179860377881010 1.539544134283184 2.237309047324429 134 127 113
-1.135885459447112 1.538077806383775 2.205720448039559 139 131 115
-1.092792347962844 1.536503854519559 2.174788122864868 140 132 115
-1.050578923153231 1.534837066394513 2.144508071700426 142 134 117
-1.013284585162189 1.535117311911535 2.117464314342470 146 138 121
-0.974435833736234 1.534153751898951 2.089502685290692 148 140 123
-0.937264471693831 1.533576310585214 2.062690933728740 155 144 128
-0.898541523249815 1.531735346803234 2.034966643939542 159 148 132
-0.863104091257003 1.531149685415582 2.009411439198913 158 147 131
-0.827724613446880 1.530159826785849 1.983965570523068 158 147 131
-0.794011216887101 1.529634954609516 1.959648245470750 158 147 131
-0.760352947476711 1.528725602129740 1.935434923016640 157 146 130
-0.731565705318758 1.530098471248878 1.914367225437245 157 146 130
-0.699617336174892 1.529348492673610 1.891365115338573 159 148 132
-0.668522503647636 1.528688059519917 1.868965944684332 160 149 133
-0.638279087462016 1.528131959491775 1.847165713374590 159 151 132
-0.609684790326925 1.528159147548861 1.826462024888927 159 151 132
-0.581137139241318 1.527861006118419 1.805846338601748 161 150 132
-0.552636134205194 1.527237535200448 1.785318654513053 162 154 135
-0.524979477927450 1.526767689754625 1.765376576102422 165 154 136
-0.499759042034249 1.527434025873599 1.747008643495791 165 154 136
-0.472987019739437 1.526836839524330 1.727728172661914 161 150 134
-0.447849981328647 1.526921525953480 1.709517577319241 158 147 131
-0.423548810576329 1.527218988670692 1.691876587254905 157 146 130
-0.400081387207507 1.527744015379943 1.674801202368978 157 146 130
-0.376652128788264 1.528002863417581 1.657797819281809 160 149 133
-0.352468279917979 1.527482073181311 1.640378168080329 163 152 136
-0.330700155440800 1.528240412314964 1.624493995050182 164 153 137
-0.308176026995929 1.528228971644030 1.608190887172436 167 154 137
-0.286479285109625 1.528489458077072 1.592441384173303 167 156 138
-0.264817881139596 1.528503482777137 1.576758549506356 163 152 136
-0.243981036694833 1.528809151519816 1.561623986251448 162 151 135
-0.223966631500358 1.529421252009088 1.547033694308647 162 151 133
-0.203196929096518 1.529258643459112 1.532025800884891 163 152 134
-0.183248252426315 1.529412325125049 1.517559512039956 162 154 135
-0.162545692063398 1.528781439282418 1.502678288447351 159 151 132
-0.144234119552192 1.529602206022794 1.489285875193551 159 151 132
-0.125167249831620 1.529648263723923 1.475475860458794 158 147 129
-0.106915751778082 1.530050045518239 1.462196783369708 148 137 119
-0.088693937574215 1.530244799456856 1.448973707679658 149 141 124
-0.069718946435959 1.529650056652245 1.435337030608583 152 141 125
-0.053121514741230 1.530600621889174 1.423163829910082 149 138 122
-0.035769492595461 1.530771548852195 1.410574361097268 153 142 126
-0.016884259764544 1.529550793245824 1.397107021589943 148 140 123
-0.000370225552225 1.529919708792928 1.385091158155399 150 142 125
0.016896278836158 1.529494198362146 1.372663026706473 155 144 126
0.033355892657413 1.529483562840467 1.360749832503494 160 149 131
0.049010736186518 1.529902589931868 1.349347575446530 158 150 131
0.063862929698448 1.530766067340329 1.338452255435651 158 150 131
0.081020593304703 1.529581454771979 1.326229462449856 172 161 143
0.094271020573912 1.531358478987857 1.316341349697926 178 165 148
0.111375677305754 1.529804173820043 1.304218559210409 177 166 148
0.125354544967959 1.530619178079611 1.293963512909984 174 163 147
0.140084469289577 1.530629897891973 1.283298865328465 171 160 144
0.154017397660624 1.531124501898672 1.273130487859881 170 159 143
0.168699969174432 1.530804962988846 1.262555175843491 169 158 142
0.182586958254322 1.530979166742675 1.252473467206747 165 154 138
0.197993022852848 1.529663103233923 1.241540555208368 165 154 138
0.209522948480650 1.531525562834416 1.232883655311530 165 154 138
0.223342795519616 1.531231489295590 1.222928616505939 165 154 138
0.235602575057066 1.532141787409093 1.213902116327319 167 156 140
0.248610584220627 1.532228084136753 1.204471348334180 169 158 142
0.260830078533522 1.532857415874663 1.195520850054251 170 159 143
0.273796388955878 1.532652887757410 1.186168750693091 173 160 145
0.285975598044219 1.533001253119727 1.177294254311853 173 162 146
0.298135017899448 1.533211599911577 1.168457092196640 169 158 140
0.309510163453964 1.533994557121634 1.160092199594773 173 160 143
0.320103154982746 1.535364912453877 1.152195576406324 180 167 150
0.332205327413607 1.535175991238305 1.143466416989251 179 166 149
0.342762981026114 1.536299884837572 1.135636462132986 174 161 146
0.353303672438808 1.537305476805010 1.127838508076171 172 159 144
0.363827401651690 1.538192767140619 1.120072554818805 170 157 142
0.373573924147117 1.539701960241031 1.112765537408350 174 161 146
0.383304897959381 1.541102710178933 1.105487854064056 175 164 148
0.393779154089478 1.541644954088376 1.097815236471749 177 164 149
0.404994572262430 1.541313904265380 1.089751684731360 174 163 147
0.416949032203261 1.540094773005966 1.081301198942821 174 163 147
0.426613570732928 1.541032174885873 1.074148852063035 177 166 150
0.437774568514816 1.540321573994093 1.066187969554212 179 168 152
0.445140704533414 1.543356358197405 1.060349761982905 181 170 154
0.457777665576083 1.540854806728813 1.051619011477711 181 170 154
-1.626362469861909 0.243271236482424 2.801887205369408 134 134 114
-1.579803062620660 0.261208907578595 2.764875524565593 115 111 88
-1.561562858596706 0.280145933027692 2.748402610858263 106 77 73
-1.562163958434704 0.300015373383688 2.745550206749830 128 74 66
-1.561050284944365 0.319813492115402 2.741455938041560 120 71 63
-1.568472313146138 0.340234397640145 2.743498990533715 84 69 64
-1.569052210234371 0.360251715035928 2.740606585425970 119 102 99
-1.573036210679562 0.380589128128020 2.740149908318728 119 80 77
-1.576157170393980 0.400930314285246 2.739061631978417 93 65 66
-1.583523364688038 0.421740629348092 2.740999348505719 112 68 71
-1.587471320458628 0.442329433407819 2.740474669699647 113 89 85
-1.597355254354129 0.463626281975873 2.744172513895140 129 130 126
-1.604671268807076 0.484786572699546 2.746015561390740 55 54 51
-1.611970321060211 0.506065165055047 2.747826608086891 70 71 59
-1.615862442923087 0.527043378652877 2.747196593315966 81 79 61
-1.619743256652754 0.548100460005260 2.746545244678742 129 116 65
-1.616844134001525 0.568320180578643 2.741075774706264 101 105 85
-1.619862613758745 0.589376105761501 2.739794160202615 56 57 63
-1.623715863913717 0.610625427265605 2.739090810266287 90 82 79
-1.627557805935481 0.631953616524262 2.738366126463659 137 103 96
-1.624642427842766 0.652286709494814 2.732865989058376 113 83 79
-1.628467407664718 0.673733200385300 2.732109304456299 97 65 70
-1.628913727429430 0.694682143131733 2.728964893052894 122 77 76
-1.635242311686315 0.716713752220617 2.729941668786134 111 108 107
