ply
format ascii 1.0
element vertex 732
property double x
property double y
property double z
property uchar red
property uchar green
property uchar blue
end_header
0.308424358947050 0.666230791296861 4.171875000000000 80 77 64
0.308424358947050 0.687809218932676 4.171875000000000 80 77 64
0.308135572094103 0.708723425925637 4.167968750000000 76 73 58
0.308424358947050 0.730966074204306 4.171875000000000 34 28 19
0.308713145799997 0.753249131523492 4.175781250000000 19 12 9
0.307557998388210 0.771948426865049 4.160156250000000 51 42 29
0.305825277270530 0.788996008596765 4.136718750000000 47 38 23
0.302648621888116 0.801974919864653 4.093750000000000 32 25 14
0.297450458535076 0.809011197336033 4.023437500000000 59 53 38
0.292396688608509 0.815722938220446 3.955078125000000 75 69 52
0.286765344976049 0.820075807285980 3.878906250000000 81 77 58
0.281134001343589 0.823640700061442 3.802734375000000 92 87 66
0.274925084005235 0.824685084855958 3.718750000000000 75 72 57
0.269582527225722 0.827520086376454 3.646484375000000 55 55 47
0.264095577019735 0.829154183204419 3.572265625000000 56 56 48
0.258897413666695 0.830947387668782 3.501953125000000 59 58 50
0.253699250313655 0.832013229403847 3.431640625000000 67 66 55
0.249223054092981 0.834769929526436 3.371093750000000 100 93 71
0.244602464445834 0.836406543037526 3.308593750000000 108 100 74
0.240270661651634 0.838404309387596 3.250000000000000 109 102 75
0.235938858857434 0.839795940129919 3.191406250000000 109 103 74
0.232040236342654 0.842153595056136 3.138671875000000 110 102 74
0.228141613827874 0.843965727935380 3.085937500000000 110 102 74
0.224387384739567 0.845776596551790 3.035156250000000 111 103 75
0.220777549077734 0.847616507685754 2.986328125000000 110 103 74
0.217456500268847 0.850080230422055 2.941406250000000 112 106 77
0.214135451459960 0.852079249192417 2.896484375000000 118 111 82
0.211103189504020 0.854782897646149 2.855468750000000 119 112 81
0.208070927548080 0.857062251174458 2.814453125000000 119 112 81
0.205327452445087 0.860127052467171 2.777343750000000 119 112 81
0.202583977342093 0.862807967874978 2.740234375000000 122 115 84
0.199840502239100 0.865104997397877 2.703125000000000 131 121 89
0.197241420562580 0.867653319161170 2.667968750000000 136 124 91
0.194786732312533 0.870483239945246 2.634765625000000 141 129 95
0.192332044062486 0.872969683884930 2.601562500000000 140 129 96
0.189732962385966 0.874447166074537 2.566406250000000 139 128 95
0.187278274135919 0.876236554065312 2.533203125000000 136 125 92
0.184967979312346 0.878368154637643 2.501953125000000 136 125 92
0.182802077915246 0.880872274571918 2.472656250000000 136 125 92
0.180636176518146 0.883073326702319 2.443359375000000 135 124 91
0.178614668547519 0.885687307235181 2.416015625000000 135 124 91
0.176593160576892 0.888018424484427 2.388671875000000 139 128 95
0.174716046032739 0.890802879176650 2.363281250000000 152 139 106
0.172694538062112 0.892578372118794 2.335937500000000 160 147 111
0.170817423517959 0.894827407024173 2.310546875000000 165 150 111
0.169084702400279 0.897580290673174 2.287109375000000 167 151 113
0.167496374709072 0.900867329846185 2.265625000000000 162 145 109
0.165763653591392 0.903145407269117 2.242187500000000 163 146 110
0.164319719326659 0.906774659023684 2.222656250000000 160 145 108
0.163164571914872 0.911815698670662 2.207031250000000 159 145 108
0.162009424503085 0.916695102155573 2.191406250000000 167 153 119
0.159699129679512 0.914795900936382 2.160156250000000 112 102 81
0.155367326885312 0.900852300802691 2.101562500000000 31 29 19
0.152768245208792 0.896470472117403 2.066406250000000 42 41 33
0.151035524091112 0.896869529156318 2.042968750000000 38 36 28
0.150024770105798 0.901363782493488 2.029296875000000 27 26 17
0.149302802973431 0.907471868925651 2.019531250000000 84 78 58
0.148580835841065 0.913478932756522 2.009765625000000 217 206 173
0.148003262135171 0.920282810874760 2.001953125000000 69 59 39
0.147136901576331 0.925189992614391 1.990234375000000 133 122 94
0.146126147591018 0.929057905823555 1.976562500000000 168 155 116
0.144898803465995 0.931392171887343 1.959960937500000 196 180 136
0.143671459340971 0.933554699528936 1.943359375000000 198 182 137
0.142588508642421 0.936493836937638 1.928710937500000 199 183 137
0.141505557943871 0.939281440444403 1.914062500000000 198 182 136
0.140494803958558 0.942401786404012 1.900390625000000 204 188 142
0.139556246686481 0.945870028206659 1.887695312500000 207 191 145
0.138617689414404 0.949206940627627 1.875000000000000 206 190 144
0.137462542002618 0.950914234431992 1.859375000000000 210 194 148
0.136379591304068 0.952964372949331 1.844726562500000 214 198 152
0.135513230745228 0.956391573580044 1.833007812500000 215 199 153
0.134430280046678 0.958153797683703 1.818359375000000 216 199 153
0.134213689906968 0.966000099068221 1.815429687500000 218 202 155
0.132769755642234 0.964896441952292 1.795898437500000 221 205 159
0.292769326111671 -1.667904894258921 3.701171875000000 188 174 147
0.295241257097310 -1.662682049457248 3.732421875000000 190 176 149
0.296786213963335 -1.651976194088585 3.751953125000000 189 175 148
0.298794657889167 -1.643617855858380 3.777343750000000 190 176 149
0.301421084561409 -1.638355866279025 3.810546875000000 190 176 149
0.304047511233651 -1.632750399855279 3.843750000000000 191 177 150
0.307137424965700 -1.629260098587022 3.882812500000000 192 178 151
0.310227338697749 -1.625365706913601 3.921875000000000 192 178 151
0.313626243803004 -1.622665910461085 3.964843750000000 185 171 144
0.316716157535053 -1.617943133457075 4.003906250000000 184 170 143
0.319806071267102 -1.612816266047900 4.042968750000000 190 176 149
0.323204976372357 -1.608823380298855 4.085937500000000 195 181 154
0.326603881477611 -1.604385995104129 4.128906250000000 197 183 156
0.330002786582865 -1.599504110463721 4.171875000000000 197 183 156
0.333710683061324 -1.595655184882152 4.218750000000000 196 182 155
0.337418579539783 -1.591321350814385 4.265625000000000 196 183 155
0.341435467391447 -1.587939657724424 4.316406250000000 198 186 158
0.346070337989521 -1.586866336995240 4.375000000000000 201 187 160
0.351323191334005 -1.587980161505283 4.441406250000000 202 188 161
0.355958061932079 -1.585654160520087 4.500000000000000 201 188 161
0.360592932530153 -1.582722023927144 4.558593750000000 199 188 160
0.365536794501432 -1.580519778589165 4.621093750000000 198 187 159
0.370789647845916 -1.578986810945377 4.687500000000000 201 188 161
0.376042501190400 -1.576766889612808 4.753906250000000 200 188 164
0.381913337281293 -1.576410841195335 4.828125000000000 176 170 148
0.389329130238211 -1.581563064916446 4.921875000000000 225 224 214
0.404469707525253 -1.616620578200698 5.113281250000000 255 255 255
0.412194491855376 -1.620542854711725 5.210937500000000 228 224 210
0.420228267558704 -1.624649500430743 5.312500000000000 207 198 173
0.425481120903188 -1.617135994790512 5.378906250000000 204 193 171
0.431969939740492 -1.613552280183054 5.460937500000000 196 188 172
0.445874551534714 -1.636335535567874 5.636718750000000 105 104 102
0.470593861391108 -1.696282584024969 5.949218750000000 79 80 80
0.478936628467641 -1.695037560401218 6.054687500000000 96 95 92
0.485116455931740 -1.685187915988033 6.132812500000000 132 130 123
0.492841240261863 -1.679795908660004 6.230468750000000 201 200 191
0.498712076352757 -1.667195920966029 6.304687500000000 255 255 255
0.504891903816855 -1.654840916040821 6.382812500000000 185 184 182
0.532701127405299 -1.711156231587852 6.734375000000000 97 95 93
0.546605739199521 -1.720079186075510 6.910156250000000 75 77 80
0.555875480395669 -1.712901619072836 7.027343750000000 65 71 74
0.563600264725792 -1.699852098566929 7.125000000000000 62 68 71
0.568544126697071 -1.677586764612505 7.187500000000000 60 66 69
0.571943031802325 -1.650217248924660 7.230468750000000 57 63 67
0.575032945534374 -1.621531910894362 7.269531250000000 58 64 69
0.578122859266423 -1.592442482458898 7.308593750000000 62 66 69
0.582448738491293 -1.566272619043294 7.363281250000000 107 111 111
0.586156634969752 -1.537915610388463 7.410156250000000 111 116 114
0.588628565955391 -1.505911673984475 7.441406250000000 130 134 127
0.590482514194621 -1.472043864665391 7.464843750000000 165 176 182
0.592336462433850 -1.437933601103208 7.488281250000000 161 179 194
0.593263436553465 -1.401391209533031 7.500000000000000 207 217 221
0.594808393419490 -1.366146964310718 7.519531250000000 255 255 255
0.595735367539104 -1.329321709456925 7.531250000000000 254 255 255
0.596971333031924 -1.293044505175774 7.546875000000000 226 240 247
0.597898307151539 -1.255956591558623 7.558593750000000 191 217 239
0.599134272644359 -1.219376319473598 7.574218750000000 199 224 240
0.598207298524744 -1.178373762292597 7.562500000000000 211 230 243
0.598516289897949 -1.139846270685775 7.566406250000000 139 159 179
0.598207298524744 -1.100141859852638 7.562500000000000 180 198 215
0.598825281271154 -1.062122009777940 7.570312500000000 224 236 242
0.599134272644359 -1.023493495569827 7.574218750000000 208 223 230
0.600370238137178 -0.986347496917570 7.589843750000000 224 233 239
0.595735367539104 -0.939778558877792 7.531250000000000 255 255 255
0.588628565955391 -0.890077896512899 7.441406250000000 252 252 252
0.561128333740152 -0.811802795970814 7.093750000000000 190 159 152
0.271294425673928 -0.374750990058173 3.429687500000000 118 92 84
0.188175746281802 -0.247630928877333 2.378906250000000 54 57 56
0.182459405877511 -0.228177709444423 2.306640625000000 50 54 56
0.183849867056933 -0.217894884738348 2.324218750000000 49 54 54
0.182459405877511 -0.204316171019425 2.306640625000000 47 50 52
0.181686927444499 -0.191570899682426 2.296875000000000 42 46 47
0.180450961951679 -0.178468256452406 2.281250000000000 40 44 46
0.180450961951679 -0.166668816621585 2.281250000000000 36 40 43
0.179832979205269 -0.154339002212715 2.273437500000000 32 36 39
0.179678483518667 -0.142457480038027 2.271484375000000 33 37 40
0.179523987832064 -0.130596162383598 2.269531250000000 30 32 39
0.180450961951679 -0.119471057298305 2.281250000000000 27 30 37
0.180914449011486 -0.107948171279473 2.287109375000000 23 24 27
0.179523987832064 -0.095379683573462 2.269531250000000 89 82 79
0.336182614046964 -0.156628662213627 4.250000000000000 150 147 140
0.329693795209660 -0.132047275581079 4.167968750000000 169 103 93
0.331547743448890 -0.111110359227278 4.191406250000000 162 147 123
0.333710683061324 -0.090014335237078 4.218750000000000 200 156 135
0.331547743448890 -0.067751458753065 4.191406250000000 167 113 102
0.332783708941709 -0.046243758780697 4.207031250000000 157 101 100
0.331238752075685 -0.024369825232926 4.187500000000000 184 127 113
0.330929760702480 -0.002708050990410 4.183593750000000 168 171 155
0.330620769329275 0.018913314211589 4.179687500000000 91 95 85
0.330620769329275 0.040532150887921 4.179687500000000 88 87 68
0.330311777956070 0.062092902529146 4.175781250000000 134 124 89
0.330311777956070 0.083691534685219 4.175781250000000 191 172 95
0.330311777956070 0.105290166841292 4.175781250000000 136 126 96
0.330620769329275 0.127007497593247 4.179687500000000 165 106 79
0.330929760702480 0.148765237385719 4.183593750000000 218 134 89
0.331238752075685 0.170563386218707 4.187500000000000 157 141 126
0.331547743448890 0.192401944092211 4.191406250000000 75 93 90
0.331856734822095 0.214280911006232 4.195312500000000 126 145 122
0.332474717568504 0.236420008157942 4.203125000000000 175 166 90
0.332783708941709 0.258399997673254 4.207031250000000 196 181 104
0.332783708941709 0.280160265991394 4.207031250000000 145 101 94
0.333092700314914 0.302200869067480 4.210937500000000 183 107 93
0.333092700314914 0.323981341905878 4.210937500000000 155 149 117
0.333401691688119 0.346082558542740 4.214843750000000 135 130 83
0.333401691688119 0.367883235901396 4.214843750000000 121 111 76
0.333092700314914 0.389322760421071 4.210937500000000 100 106 93
0.332783708941709 0.410721875900230 4.207031250000000 85 88 78
0.332165726195299 0.431679020459375 4.199218750000000 87 86 72
0.331547743448890 0.452555346937487 4.191406250000000 88 85 72
0.331238752075685 0.473792826254580 4.187500000000000 87 84 71
0.330929760702480 0.494989896531156 4.183593750000000 87 84 70
0.330620769329275 0.516146557767216 4.179687500000000 86 84 68
0.330620769329275 0.537765394443547 4.179687500000000 85 83 68
0.330620769329275 0.559384231119879 4.179687500000000 84 81 68
0.330311777956070 0.580460074274906 4.175781250000000 83 80 67
0.330311777956070 0.602058706430979 4.175781250000000 83 80 67
0.330311777956070 0.623657338587052 4.175781250000000 83 80 67
0.330002786582865 0.644652363661046 4.171875000000000 81 78 65
0.330002786582865 0.666230791296861 4.171875000000000 80 77 64
0.330002786582865 0.687809218932676 4.171875000000000 80 78 63
0.330002786582865 0.709387646568491 4.171875000000000 73 71 55
0.330002786582865 0.730966074204306 4.171875000000000 76 69 57
0.330002786582865 0.752544501840121 4.171875000000000 69 59 45
0.329075812463250 0.771948426865049 4.160156250000000 65 53 36
0.327221864224021 0.788996008596765 4.136718750000000 60 48 31
0.323822959118766 0.801974919864653 4.093750000000000 57 47 31
0.318570105774283 0.809796645100437 4.027343750000000 68 60 42
0.313008261056594 0.816125764362777 3.957031250000000 77 72 52
0.306982929279098 0.820488735688440 3.880859375000000 81 77 57
0.300803101814999 0.823640700061442 3.802734375000000 91 87 66
0.294159787291093 0.824685084855958 3.718750000000000 75 72 57
0.288443446886802 0.827520086376454 3.646484375000000 56 56 48
0.282572610795908 0.829154183204419 3.572265625000000 57 58 50
0.277010766078220 0.830947387668782 3.501953125000000 59 60 53
0.271603417047133 0.832486771367082 3.433593750000000 69 68 56
0.266659555075854 0.834769929526436 3.371093750000000 103 96 73
0.261715693104575 0.836406543037526 3.308593750000000 107 98 73
0.256926326819899 0.837900460643974 3.248046875000000 108 101 75
0.252291456221825 0.839281989126168 3.189453125000000 110 104 76
0.248274568370161 0.842153595056136 3.138671875000000 111 103 75
0.244103184831894 0.843965727935380 3.085937500000000 111 103 75
0.240086296980230 0.845776596551790 3.035156250000000 111 103 75
0.236223904815169 0.847616507685754 2.986328125000000 110 103 75
0.232670504023312 0.850080230422055 2.941406250000000 112 106 77
0.229271598918058 0.852653813756943 2.898437500000000 118 111 82
0.225872693812804 0.854782897646149 2.855468750000000 117 110 79
0.222628284394152 0.857062251174458 2.814453125000000 117 110 79
0.219692866348705 0.860127052467171 2.777343750000000 118 111 80
0.216757448303258 0.862807967874978 2.740234375000000 122 115 84
0.213976525944414 0.865730073263049 2.705078125000000 133 123 91
0.211041107898967 0.867653319161170 2.667968750000000 137 125 91
0.208414681226725 0.870483239945246 2.634765625000000 140 129 95
0.205788254554483 0.872969683884930 2.601562500000000 141 130 97
0.203007332195639 0.874447166074537 2.566406250000000 140 129 96
0.200380905523397 0.876236554065312 2.533203125000000 137 126 93
0.197908974537757 0.878368154637643 2.501953125000000 136 125 92
0.195591539238721 0.880872274571918 2.472656250000000 136 125 92
0.193274103939684 0.883073326702319 2.443359375000000 135 124 91
0.190956668640647 0.884971311028847 2.414062500000000 135 124 91
0.189102720401417 0.888744522950890 2.390625000000000 141 130 97
0.186939780788982 0.890802879176650 2.363281250000000 151 138 103
0.184931336863150 0.893324675105515 2.337890625000000 159 146 108
0.182922892937318 0.895583812271023 2.312500000000000 165 150 112
0.181068944698089 0.898346798180153 2.289062500000000 169 154 116
0.179214996458859 0.900867329846185 2.265625000000000 168 154 117
0.177361048219630 0.903145407269117 2.242187500000000 159 146 109
0.175816091353605 0.906774659023684 2.222656250000000 158 145 107
0.174580125860785 0.911815698670662 2.207031250000000 160 147 110
0.172571681934953 0.912610008117446 2.181640625000000 140 130 102
0.168863785456494 0.904043327055575 2.134765625000000 45 41 28
0.164537906231625 0.891642844195972 2.080078125000000 29 27 19
0.162838453678998 0.893081169765352 2.058593750000000 68 65 58
0.161447992499576 0.896012101308176 2.041015625000000 58 54 46
0.160366522693359 0.900496252385217 2.027343750000000 27 26 18
0.159594044260346 0.906594236557251 2.017578125000000 62 58 39
0.158976061513936 0.913478932756522 2.009765625000000 236 224 188
0.158203583080924 0.919384973986102 2.000000000000000 106 95 74
0.157276608961309 0.924282053465603 1.988281250000000 122 110 84
0.156272386998393 0.928598885119097 1.975585937500000 169 155 115
0.155036421505573 0.931392171887343 1.959960937500000 193 177 134
0.153723208169453 0.933554699528936 1.943359375000000 197 181 136
0.152487242676633 0.936019662842986 1.927734375000000 200 184 138
0.151328525027114 0.938802215219686 1.913085937500000 199 183 137
0.150324303064198 0.942401786404012 1.900390625000000 204 188 142
0.149320081101282 0.945870028206659 1.887695312500000 210 194 149
0.148315859138366 0.949206940627627 1.875000000000000 211 195 149
0.147079893645547 0.950914234431992 1.859375000000000 210 194 148
0.145843928152727 0.952459892074292 1.843750000000000 211 195 149
0.144994201876413 0.956391573580044 1.833007812500000 214 198 152
0.143835484226895 0.958153797683703 1.818359375000000 217 201 155
0.143526492853690 0.965480464802988 1.814453125000000 218 202 156
0.142058783830966 0.964896441952292 1.795898437500000 221 205 159
0.313065294683488 -1.674066020517398 3.714843750000000 188 174 147
0.315369665937730 -1.667032342626943 3.742187500000000 189 175 148
0.317015645405046 -1.656275975957634 3.761718750000000 189 175 148
0.319320016659288 -1.648716980540464 3.789062500000000 190 176 149
0.321953583806994 -1.642554625546782 3.820312500000000 190 176 149
0.324751748901431 -1.636898647822391 3.853515625000000 191 177 150
0.327879109889331 -1.632538287920196 3.890625000000000 192 178 151
0.331171068823963 -1.628603487206258 3.929687500000000 192 178 151
0.334627625705326 -1.625063938900190 3.970703125000000 185 171 144
0.338084182586689 -1.621100095668699 4.011718750000000 184 170 143
0.341376141521321 -1.615932819219007 4.050781250000000 189 175 148
0.344668100455953 -1.610361452364151 4.089843750000000 195 181 154
0.348618451177511 -1.607421730194203 4.136718750000000 197 183 156
0.352239606005606 -1.602499436513279 4.179687500000000 197 183 156
0.356189956727165 -1.598610101891193 4.226562500000000 197 183 156
0.359811111555260 -1.592778604798647 4.269531250000000 194 182 155
0.364090658170281 -1.589376707188428 4.320312500000000 196 185 157
0.368699400678766 -1.586866336995240 4.375000000000000 202 187 160
0.374624926761103 -1.589376801928771 4.445312500000000 203 188 161
0.379562865163051 -1.587030596423316 4.503906250000000 202 188 161
0.384500803564998 -1.584078255310115 4.562500000000000 199 188 160
0.389438741966946 -1.580519778589165 4.621093750000000 198 187 159
0.395035072155820 -1.578986810945377 4.687500000000000 201 189 163
0.400960598238158 -1.578062507435005 4.757812500000000 198 186 163
0.407215320213958 -1.577686254497273 4.832031250000000 178 170 149
0.414786825763611 -1.581563064916446 4.921875000000000 221 219 207
0.430259032756381 -1.614150569677856 5.105468750000000 255 255 255
0.438159734199497 -1.616898455488235 5.199218750000000 231 228 213
0.446060435642614 -1.618676524326218 5.292968750000000 207 198 173
0.451656765831488 -1.611264041287278 5.359375000000000 204 195 171
0.458240683700751 -1.606627163100723 5.437500000000000 197 189 173
0.474042086586984 -1.632933590587483 5.625000000000000 102 101 100
0.500048562170576 -1.691827475465481 5.933593750000000 79 81 81
0.508936851294082 -1.690663269922763 6.039062500000000 94 93 91
0.515849965056809 -1.681967811689967 6.121093750000000 131 129 121
0.523421470606462 -1.674530090764518 6.210937500000000 197 196 187
0.529676192582262 -1.662031125671834 6.285156250000000 255 255 255
0.535601718664600 -1.647751634270756 6.355468750000000 191 189 187
0.564900153182823 -1.703215831441272 6.703125000000000 99 98 96
0.583335123216761 -1.722996222569702 6.921875000000000 78 81 83
0.593211000020657 -1.715758042006254 7.039062500000000 69 75 78
0.599794917889920 -1.697988225651834 7.117187500000000 67 73 76
0.604403660398405 -1.673939836863347 7.171875000000000 64 70 74
0.608024815226500 -1.646651139256536 7.214843750000000 59 65 70
0.611316774161132 -1.618046619307270 7.253906250000000 64 70 75
0.614608733095764 -1.589038008952839 7.292968750000000 62 66 69
0.619217475604248 -1.562948963618269 7.347656250000000 100 104 104
0.622509434538880 -1.533051354372475 7.386718750000000 108 113 111
0.625801393473512 -1.502749654721515 7.425781250000000 127 131 125
0.627776568834291 -1.468962663483464 7.449218750000000 170 181 187
0.630080940088533 -1.435683313777538 7.476562500000000 166 184 199
0.631068527768923 -1.399201535768136 7.488281250000000 192 203 206
0.632385311342776 -1.363308217371891 7.503906250000000 252 254 254
0.633372899023165 -1.326563780599131 7.515625000000000 255 255 255
0.635018878490481 -1.291036672093202 7.535156250000000 208 230 242
0.635677270277407 -1.253360298862895 7.542968750000000 123 178 229
0.636664857957797 -1.216231976205228 7.554687500000000 130 189 234
0.636335662064334 -1.176547769892350 7.550781250000000 139 188 227
0.636335662064334 -1.137492432233145 7.550781250000000 106 135 168
0.636664857957797 -1.099005349666840 7.554687500000000 128 167 207
0.637323249744723 -1.061025908632659 7.562500000000000 183 215 234
0.635677270277407 -1.019270727150766 7.542968750000000 155 184 206
0.637323249744723 -0.982794006192700 7.562500000000000 190 207 223
0.634031290810091 -0.938803684854060 7.523437500000000 255 255 255
0.629422548301607 -0.893348523954154 7.468750000000000 254 254 255
0.592552608233730 -0.804650348429221 7.031250000000000 136 130 128
0.201961680639663 -0.261856187244521 2.396484375000000 57 57 55
0.194390175090010 -0.240108478656922 2.306640625000000 53 56 57
0.194225577143278 -0.227984502239135 2.304687500000000 50 53 55
0.195213164823668 -0.217162464957715 2.316406250000000 47 51 52
0.194554773036741 -0.204489173704454 2.308593750000000 44 48 49
0.193567185356352 -0.191570899682426 2.296875000000000 41 45 47
0.192744195622694 -0.178926650946718 2.287109375000000 38 42 44
0.192085803835768 -0.166526120716944 2.279296875000000 37 41 43
0.191756607942304 -0.154471595857227 2.275390625000000 33 37 40
0.191592009995573 -0.142579971422411 2.273437500000000 30 34 37
0.192414999729231 -0.131382886253379 2.283203125000000 29 33 38
0.193073391516157 -0.119982491618931 2.291015625000000 23 27 32
0.192085803835768 -0.107579432863488 2.279296875000000 94 66 46
0.200315701172347 -0.099894212486147 2.376953125000000 199 162 136
0.357177544407554 -0.156196781711200 4.238281250000000 154 151 145
0.353556389579459 -0.132913565111602 4.195312500000000 165 96 90
0.356189956727165 -0.112042319369911 4.226562500000000 162 143 122
0.356189956727165 -0.090181028450480 4.226562500000000 208 161 140
0.354214781366386 -0.067940885012393 4.203125000000000 162 110 99
0.355202369046775 -0.046329633913066 4.214843750000000 147 98 97
0.353885585472922 -0.024438024370705 4.199218750000000 179 120 107
0.353556389579459 -0.002715636567414 4.195312500000000 165 167 154
0.352897997792533 0.018948666200770 4.187500000000000 108 111 95
0.352568801899070 0.040570031402770 4.183593750000000 103 104 76
0.352568801899070 0.062209072599359 4.183593750000000 125 118 76
0.352568801899070 0.083848113795949 4.183593750000000 190 170 88
0.352568801899070 0.105487154992539 4.183593750000000 138 125 98
0.352897997792533 0.127244894785010 4.187500000000000 165 106 76
0.352897997792533 0.148904140501858 4.187500000000000 220 151 97
0.353227193685996 0.170722493855105 4.191406250000000 194 180 155
0.353556389579459 0.192581256248867 4.195312500000000 81 91 85
0.353885585472922 0.214480427683146 4.199218750000000 127 140 116
0.354214781366386 0.236420008157942 4.203125000000000 174 167 94
0.354543977259849 0.258399997673254 4.207031250000000 192 181 103
0.354873173153312 0.280420396229083 4.210937500000000 128 97 86
0.355202369046775 0.302481203825428 4.214843750000000 192 114 97
0.355202369046775 0.324281881184084 4.214843750000000 157 147 116
0.355531564940238 0.346403302341204 4.218750000000000 138 134 94
0.355531564940238 0.368224184220118 4.218750000000000 159 151 119
0.355202369046775 0.389683913260051 4.214843750000000 105 111 101
0.354873173153312 0.411103233259468 4.210937500000000 82 84 74
0.353885585472922 0.431679020459375 4.199218750000000 89 87 74
0.353227193685996 0.452555346937487 4.191406250000000 89 86 73
0.353227193685996 0.474234797174593 4.191406250000000 88 85 72
0.352897997792533 0.495452071971428 4.187500000000000 87 84 70
0.352568801899070 0.516628937727746 4.183593750000000 87 85 69
0.352568801899070 0.538267978924336 4.183593750000000 86 84 69
0.352239606005606 0.559384231119879 4.179687500000000 85 82 69
0.352239606005606 0.581003067796210 4.179687500000000 83 81 68
0.352239606005606 0.602621904472542 4.179687500000000 82 79 66
0.351910410112143 0.623657338587052 4.175781250000000 82 79 66
0.351910410112143 0.645255970743125 4.175781250000000 80 77 64
0.351910410112143 0.666854602899199 4.175781250000000 80 77 64
0.351581214218680 0.687809218932676 4.171875000000000 81 78 65
0.351581214218680 0.709387646568491 4.171875000000000 75 70 57
0.351252018325217 0.730281649041193 4.167968750000000 79 72 59
0.350922822431754 0.751135242473379 4.164062500000000 70 60 43
0.350264430644827 0.771223592661420 4.156250000000000 64 52 34
0.348618451177511 0.788996008596765 4.136718750000000 61 49 30
0.344997296349416 0.801974919864653 4.093750000000000 57 46 28
0.339730162054005 0.810582092864840 4.031250000000000 68 60 42
0.333640038024937 0.816528590505108 3.958984375000000 76 71 52
0.327056120155673 0.820488735688440 3.880859375000000 81 77 57
0.320472202286409 0.823640700061442 3.802734375000000 91 86 67
0.313394490576951 0.824685084855958 3.718750000000000 75 72 58
0.307139768601150 0.827076851193607 3.644531250000000 56 57 48
0.301049644572081 0.829154183204419 3.572265625000000 58 59 51
0.295124118489744 0.830947387668782 3.501953125000000 58 60 52
0.289363190354138 0.832486771367082 3.433593750000000 70 68 57
0.284096056058727 0.834769929526436 3.371093750000000 104 98 74
0.278993519710048 0.836900289521019 3.310546875000000 106 98 72
0.273726385414637 0.837900460643974 3.248046875000000 106 98 72
0.268953044959421 0.839795940129919 3.191406250000000 110 104 75
0.264508900397668 0.842153595056136 3.138671875000000 112 104 76
0.260064755835915 0.843965727935380 3.085937500000000 112 105 76
0.255949807167625 0.846320854335929 3.037109375000000 112 105 76
0.251670260552604 0.847616507685754 2.986328125000000 111 103 75
0.247884507777777 0.850080230422055 2.941406250000000 112 106 77
0.244098755002951 0.852079249192417 2.896484375000000 117 110 80
0.240642198121587 0.854782897646149 2.855468750000000 116 109 78
0.237185641240224 0.857062251174458 2.814453125000000 117 110 79
0.234058280252324 0.860127052467171 2.777343750000000 118 111 80
0.230930919264423 0.862807967874978 2.740234375000000 122 115 84
0.227968156223255 0.865730073263049 2.705078125000000 133 123 91
0.224840795235354 0.867653319161170 2.667968750000000 137 125 92
0.222042630140917 0.870483239945246 2.634765625000000 139 128 95
0.219079867099749 0.872314301239371 2.599609375000000 141 130 97
0.216281702005312 0.874447166074537 2.566406250000000 140 129 96
0.213318938964143 0.875560966899494 2.531250000000000 136 125 92
0.210849969763169 0.878368154637643 2.501953125000000 135 124 91
0.208216402615464 0.880176482885842 2.470703125000000 135 124 91
0.205747433414490 0.882367432756115 2.441406250000000 134 123 90
0.203443062160247 0.884971311028847 2.414062500000000 135 124 91
0.201467886799468 0.888744522950890 2.390625000000000 141 130 97
0.198998917598494 0.890066678450057 2.361328125000000 150 137 103
0.197023742237715 0.893324675105515 2.337890625000000 158 145 108
0.194883968930205 0.895583812271023 2.312500000000000 163 149 114
0.192908793569426 0.898346798180153 2.289062500000000 172 154 119
0.191098216155378 0.901643939613293 2.267578125000000 169 154 117
0.189452236688062 0.905505543350831 2.248046875000000 164 150 111
0.187641659274015 0.908368287598418 2.226562500000000 159 145 107
0.185666483913236 0.910201865575669 2.203125000000000 159 146 114
0.182209927031872 0.904439820041193 2.162109375000000 77 70 52
0.176613596842998 0.887500905700487 2.095703125000000 25 23 15
0.173980029695292 0.884945057572903 2.064453125000000 29 27 19
0.172827844068171 0.889691867413302 2.050781250000000 65 62 55
0.171840256387782 0.895154673460034 2.039062500000000 66 63 54
0.170852668707392 0.900496252385217 2.027343750000000 27 26 20
0.169865081027003 0.905716604188851 2.015625000000000 54 49 32
0.169206689240076 0.912591198127993 2.007812500000000 236 224 183
0.168548297453150 0.919384973986102 2.000000000000000 146 135 108
0.167478410799395 0.923828083891210 1.987304687500000 118 106 81
0.166408524145639 0.928139864414639 1.974609375000000 169 155 117
0.165091740571787 0.930928100052821 1.958984375000000 190 174 131
0.163692658024568 0.933085576564349 1.942382812500000 196 180 135
0.162458173424081 0.936019662842986 1.927734375000000 199 183 137
0.161223688823594 0.938802215219686 1.913085937500000 200 184 138
0.159989204223107 0.941433233694450 1.898437500000000 202 186 140
0.159001616542718 0.945380700721813 1.886718750000000 208 192 148
0.158014028862328 0.949206940627627 1.875000000000000 210 194 148
0.156697245288475 0.950914234431992 1.859375000000000 210 194 148
0.155380461714623 0.952459892074292 1.843750000000000 210 194 148
0.154392874034233 0.955882041574940 1.832031250000000 214 198 152
0.153240688407112 0.958153797683703 1.818359375000000 215 199 153
0.152829193540283 0.964960830537755 1.813476562500000 218 202 156
0.151265513046333 0.964371756556995 1.794921875000000 221 206 159
0.332978594276530 -1.677586664093670 3.722656250000000 188 174 147
0.335773797586301 -1.672252694430576 3.753906250000000 189 175 148
0.337171399241187 -1.659715801452873 3.769531250000000 189 175 148
0.339617202137237 -1.652116396995187 3.796875000000000 190 176 149
0.342412405447009 -1.645913632960988 3.828125000000000 190 176 149
0.345207608756780 -1.639387596602658 3.859375000000000 191 177 150
0.348526912687134 -1.634996929920075 3.896484375000000 192 178 151
0.352020916824348 -1.631031822425750 3.935546875000000 192 178 151
0.355689621168423 -1.627461967339295 3.976562500000000 187 173 146
0.359533025719359 -1.624257057880322 4.019531250000000 183 169 142
0.363376430270295 -1.620607648975668 4.062500000000000 189 175 148
0.366870434407509 -1.614975668560036 4.101562500000000 195 181 154
0.370713838958445 -1.610457465284277 4.144531250000000 197 183 156
0.374557243509381 -1.605494762562836 4.187500000000000 197 183 156
0.378750048474038 -1.601565018900234 4.234375000000000 197 183 156
0.382593453024974 -1.595693112767172 4.277343750000000 196 182 155
0.387135658403353 -1.592250806116436 4.328125000000000 197 184 157
0.392027264195453 -1.589700026882731 4.382812500000000 201 186 159
0.398316471642439 -1.592170082775746 4.453125000000000 203 188 161
0.403557477848260 -1.589783468229775 4.511718750000000 203 188 161
0.409147884467803 -1.588146949459028 4.574218750000000 202 188 161
0.414388890673625 -1.584527859177303 4.632812500000000 200 188 161
0.420328697706889 -1.582934277972740 4.699218750000000 196 184 161
0.425919104326432 -1.579358125257201 4.761718750000000 197 185 162
0.432557712187139 -1.578961667799211 4.835937500000000 179 172 151
0.440244521289011 -1.581563064916446 4.921875000000000 218 217 203
0.456666340733919 -1.614150569677856 5.105468750000000 255 255 255
0.464353149835790 -1.614468856005908 5.191406250000000 234 231 218
0.472039958937662 -1.613898143442598 5.277343750000000 208 200 174
0.477979765970926 -1.606566478484691 5.343750000000000 204 195 170
0.484618373831634 -1.600856232198780 5.417968750000000 201 193 176
0.501389593690263 -1.627263682286832 5.605468750000000 108 107 106
0.531438029270306 -1.694055029745225 5.941406250000000 79 81 81
0.539124838372178 -1.687382552063922 6.027343750000000 93 92 90
0.546462247060328 -1.678747707391901 6.109375000000000 128 126 119
0.554498456575921 -1.671370600027227 6.199218750000000 192 191 182
0.560787664022907 -1.657899289436479 6.269531250000000 255 255 255
0.566028670228728 -1.640662352500691 6.328125000000000 196 194 192
0.593631302912722 -1.686342481129791 6.636718750000000 102 100 98
0.618788132700666 -1.722023877071638 6.917968750000000 81 82 84
0.629270145112309 -1.714805901028448 7.035156250000000 70 76 79
0.635908752973016 -1.696124352736738 7.109375000000000 68 74 77
0.641149759178838 -1.673028104926058 7.167968750000000 65 71 75
0.644993163729773 -1.645759611839505 7.210937500000000 61 67 72
0.647788367039545 -1.615432650616951 7.242187500000000 63 70 73
0.651631771590481 -1.587335772199810 7.285156250000000 61 67 70
0.655824576555138 -1.559625308193243 7.332031250000000 73 77 79
0.659318580692352 -1.529808517028482 7.371093750000000 64 68 68
0.663161985243288 -1.500378140274296 7.414062500000000 107 110 107
0.664908987311895 -1.465881462301538 7.433593750000000 172 183 189
0.668053591035388 -1.434183122227092 7.468750000000000 169 187 202
0.669101792276553 -1.397741753258205 7.480468750000000 182 192 198
0.670499393931438 -1.361888843902477 7.496093750000000 244 248 249
0.672246396000045 -1.326563780599131 7.515625000000000 255 255 255
0.672945196827488 -1.289028839010631 7.523437500000000 209 227 240
0.673294597241210 -1.250764006167167 7.527343750000000 124 176 227
0.673993398068653 -1.213087632936859 7.535156250000000 136 184 229
0.672945196827488 -1.172287120958441 7.523437500000000 145 188 230
0.672945196827488 -1.133373214941044 7.523437500000000 103 133 166
0.674692198896096 -1.097300584388143 7.542968750000000 126 168 211
0.675390999723538 -1.059381756914736 7.550781250000000 186 215 238
0.675390999723538 -1.020326419255532 7.550781250000000 163 189 213
0.671547595172603 -0.975687024742959 7.507812500000000 188 207 225
0.663511385657010 -0.925642885533676 7.417968750000000 255 255 255
0.657222178210024 -0.878864316714311 7.347656250000000 216 216 217
0.253315299948042 -0.324095279228436 2.832031250000000 68 70 69
0.211037849887748 -0.257801364459153 2.359375000000000 52 55 57
0.211387250301470 -0.246004453154001 2.363281250000000 52 54 56
0.206845044923091 -0.228757331060285 2.312500000000000 48 52 53
0.208067946371116 -0.218077989683507 2.326171875000000 44 48 51
0.206146244095648 -0.204143168334396 2.304687500000000 42 46 49
0.205971543888787 -0.192059600957126 2.302734375000000 39 43 47
0.204923342647623 -0.179232247276260 2.291015625000000 36 40 42
0.204049841613319 -0.166668816621585 2.281250000000000 33 37 40
0.203700441199598 -0.154604189501740 2.277343750000000 34 37 41
0.203875141406459 -0.142947445575561 2.279296875000000 28 34 37
0.205272743061344 -0.132057220998905 2.294921875000000 23 30 34
0.203700441199598 -0.119266483570054 2.277343750000000 55 46 46
0.208067946371116 -0.109791863359395 2.326171875000000 197 130 84
0.371063239372166 -0.174342898373523 4.148437500000000 214 163 122
0.376653645991709 -0.155189060538869 4.210937500000000 153 144 137
0.376653645991709 -0.133408587700472 4.210937500000000 183 106 101
0.378051247646595 -0.112042319369911 4.226562500000000 143 128 109
0.375256044336824 -0.089514255596872 4.195312500000000 191 140 120
0.377352446819152 -0.068193453358164 4.218750000000000 168 114 102
0.377003046405431 -0.046329633913066 4.214843750000000 133 97 97
0.376653645991709 -0.024506223508484 4.210937500000000 184 133 118
0.375954845164267 -0.002720693618750 4.203125000000000 167 171 156
0.375256044336824 0.018984018189950 4.195312500000000 120 123 101
0.374906643923102 0.040645792432467 4.191406250000000 108 110 77
0.374906643923102 0.062325242669573 4.191406250000000 138 135 91
0.374906643923102 0.084004692906679 4.191406250000000 214 190 86
0.374557243509381 0.105585649068162 4.187500000000000 140 129 98
0.375256044336824 0.127482291976773 4.195312500000000 157 103 75
0.375256044336824 0.149181946734138 4.195312500000000 218 148 90
0.375605444750545 0.171040709127901 4.199218750000000 184 169 143
0.375954845164267 0.192939880562180 4.203125000000000 58 64 57
0.376304245577988 0.214879461036975 4.207031250000000 132 137 112
0.376653645991709 0.236859450552288 4.210937500000000 182 171 96
0.377003046405431 0.258879849108116 4.214843750000000 201 185 105
0.377003046405431 0.280680526466772 4.214843750000000 156 109 100
0.377352446819152 0.302761538583376 4.218750000000000 181 118 104
0.377352446819152 0.324582420462290 4.218750000000000 150 146 115
0.377701847232874 0.346724046139668 4.222656250000000 131 128 89
0.377701847232874 0.368565132538840 4.222656250000000 157 152 120
0.377352446819152 0.390045066099032 4.218750000000000 92 96 83
0.377003046405431 0.411484590618707 4.214843750000000 80 81 71
0.375954845164267 0.432080582338872 4.203125000000000 92 89 75
0.375256044336824 0.452977113337242 4.195312500000000 89 87 71
0.375256044336824 0.474676768094607 4.195312500000000 88 86 70
0.374906643923102 0.495914247411700 4.191406250000000 87 85 69
0.374557243509381 0.517111317688276 4.187500000000000 86 84 68
0.374557243509381 0.538770563405124 4.187500000000000 86 84 68
0.374207843095659 0.559907020120925 4.183593750000000 84 83 69
0.373858442681938 0.581003067796210 4.179687500000000 83 82 68
0.373858442681938 0.602621904472542 4.179687500000000 82 79 66
0.373858442681938 0.624240741148874 4.179687500000000 82 78 66
0.373509042268217 0.645255970743125 4.175781250000000 80 77 64
0.373509042268217 0.666854602899199 4.175781250000000 80 77 64
0.373509042268217 0.688453235055272 4.175781250000000 79 77 63
0.373159641854495 0.709387646568491 4.171875000000000 74 70 57
0.372810241440774 0.730281649041193 4.167968750000000 77 71 58
0.372460841027052 0.751135242473379 4.164062500000000 66 56 40
0.372111440613331 0.771948426865049 4.160156250000000 62 50 32
0.370364438544724 0.789741047320652 4.140625000000000 60 48 30
0.366870434407509 0.803505406352945 4.101562500000000 53 43 25
0.361280027787966 0.812152988393648 4.039062500000000 67 59 40
0.354292019513537 0.816931416647439 3.960937500000000 76 71 52
0.347304011239109 0.820901664090900 3.882812500000000 80 76 55
0.340316002964680 0.824063730724031 3.804687500000000 91 87 66
0.332803894069669 0.825118217778676 3.720703125000000 74 70 59
0.326339986415822 0.827963321559302 3.648437500000000 57 57 50
0.319701378555115 0.829607520647396 3.574218750000000 59 60 53
0.313412171108129 0.831410827371888 3.503906250000000 59 60 52
0.307297663868004 0.832960313330317 3.435546875000000 72 69 58
0.301707257248461 0.835253573749800 3.373046875000000 105 98 76
0.296116850628918 0.836900289521019 3.310546875000000 106 98 72
0.290701144216236 0.838404309387596 3.250000000000000 106 98 72
0.285460138010414 0.839795940129919 3.191406250000000 109 101 75
0.280743232425175 0.842153595056136 3.138671875000000 111 103 77
0.276201027046796 0.844499883459390 3.087890625000000 113 106 77
0.271658821668418 0.846320854335929 3.037109375000000 112 105 76
0.267291316496900 0.848170867730022 2.988281250000000 112 105 76
0.263273211739103 0.850644692726452 2.943359375000000 112 105 76
0.259080406774446 0.852079249192417 2.896484375000000 115 108 79
0.255411702430371 0.854782897646149 2.855468750000000 117 110 81
0.251742998086296 0.857062251174458 2.814453125000000 116 109 80
0.248423694155942 0.860127052467171 2.777343750000000 117 110 80
0.245104390225588 0.862807967874978 2.740234375000000 122 115 85
0.241959786502095 0.865730073263049 2.705078125000000 131 121 91
0.238815182778602 0.868288497286472 2.669921875000000 136 125 92
0.235845279261970 0.871128520330676 2.636718750000000 140 128 95
0.232700675538477 0.872969683884930 2.601562500000000 139 128 95
0.229730772021845 0.875112650980225 2.568359375000000 138 127 94
0.226586168298352 0.876236554065312 2.533203125000000 135 124 92
0.223790964988581 0.878368154637643 2.501953125000000 133 122 89
0.220995761678809 0.880176482885842 2.470703125000000 133 122 89
0.218375258575898 0.882367432756115 2.441406250000000 133 122 89
0.216104155886709 0.885687307235181 2.416015625000000 133 122 89
0.213658352990659 0.888018424484427 2.388671875000000 140 129 97
0.211387250301470 0.890802879176650 2.363281250000000 151 138 104
0.208941447405420 0.892578372118794 2.335937500000000 156 143 106
0.206845044923091 0.895583812271023 2.312500000000000 166 152 116
0.204923342647623 0.899113305687133 2.291015625000000 171 155 119
0.202826940165294 0.901643939613293 2.267578125000000 168 152 115
0.201254638303548 0.906292255378069 2.250000000000000 170 155 117
0.198983535614359 0.907571473311051 2.224609375000000 152 139 108
0.195838931890866 0.904553449743196 2.189453125000000 116 105 85
0.190248525271323 0.889733481503938 2.126953125000000 62 57 46
0.187103921547830 0.885846663564978 2.091796875000000 23 23 14
0.184658118651780 0.884945057572903 2.064453125000000 28 26 18
0.183435217203755 0.889691867413302 2.050781250000000 56 54 46
0.182387015962590 0.895154673460034 2.039062500000000 65 63 55
0.181513514928287 0.901363782493488 2.029296875000000 22 19 11
0.180465313687122 0.906594236557251 2.017578125000000 58 50 34
0.179591812652819 0.912591198127993 2.007812500000000 239 227 179
0.178805661721946 0.918936055541773 1.999023437500000 179 167 132
0.177670110377351 0.923374114316816 1.986328125000000 122 109 84
0.176447208929326 0.927221823005722 1.972656250000000 165 152 117
0.175136957377870 0.930464028218298 1.958007812500000 180 165 125
0.173826705826415 0.933554699528936 1.943359375000000 196 180 136
0.172341754068099 0.935545488748334 1.926757812500000 198 182 135
0.171118852620074 0.938802215219686 1.913085937500000 200 184 137
0.169808601068619 0.941433233694450 1.898437500000000 201 185 139
0.168760399827454 0.945380700721813 1.886718750000000 207 190 144
0.167537498379429 0.948218183397807 1.873046875000000 211 194 148
0.166227246827974 0.950414804687018 1.858398437500000 212 196 149
0.164829645173088 0.951955411199252 1.842773437500000 210 194 148
0.163868794035354 0.955882041574940 1.832031250000000 212 195 149
0.162645892587329 0.958153797683703 1.818359375000000 214 198 150
0.162209142070177 0.964960830537755 1.813476562500000 219 204 156
0.160549490105000 0.964371756556995 1.794921875000000 222 206 159
0.352787909483615 -1.680227146775874 3.728515625000000 187 173 146
0.355929551422443 -1.675732928966332 3.761718750000000 189 175 148
0.357407971158361 -1.663155626948112 3.777343750000000 189 175 148
0.360180008163209 -1.656365667563590 3.806640625000000 190 176 149
0.362952045168057 -1.649272640375194 3.835937500000000 190 176 149
0.365908884639894 -1.642706194976348 3.867187500000000 191 177 150
0.369604933979691 -1.639094666586542 3.906250000000000 192 178 151
0.373300983319488 -1.635079047791571 3.945312500000000 192 178 151
0.377366637593265 -1.632258024217505 3.988281250000000 188 174 147
0.381432291867041 -1.628992501197757 4.031250000000000 184 170 143
0.385128341206838 -1.623724202146775 4.070312500000000 189 175 148
0.388824390546635 -1.618051812690627 4.109375000000000 195 181 154
0.392890044820412 -1.613493200374351 4.152343750000000 197 183 156
0.397325304028168 -1.609987751637173 4.199218750000000 197 183 156
0.401390958301945 -1.604519935909275 4.242187500000000 197 183 156
0.405456612575721 -1.598607620735697 4.285156250000000 196 182 155
0.410261476717457 -1.595124905044444 4.335937500000000 197 183 156
0.415435945793173 -1.592533716770223 4.390625000000000 201 186 159
0.422088834604807 -1.594963363622721 4.460937500000000 202 188 161
0.427632908614503 -1.592536340036233 4.519531250000000 203 189 162
0.433176982624198 -1.589503180841999 4.578125000000000 203 189 162
0.438721056633893 -1.585863886040016 4.636718750000000 196 183 159
0.444634735577568 -1.582934277972740 4.699218750000000 196 184 160
0.450548414521244 -1.579358125257201 4.761718750000000 203 191 166
0.457570908266858 -1.578961667799211 4.835937500000000 182 173 150
0.465702216814411 -1.581563064916446 4.921875000000000 214 212 200
0.483073648711456 -1.614150569677856 5.105468750000000 255 255 255
0.490465747391050 -1.612039256523582 5.183593750000000 238 234 223
0.497857846070644 -1.609119762558979 5.261718750000000 210 201 177
0.504510734882278 -1.603043306382751 5.332031250000000 205 195 172
0.511163623693913 -1.596239487477227 5.402343750000000 204 196 178
0.527056635855040 -1.617057847345660 5.570312500000000 115 114 111
0.562538709517090 -1.695168806885097 5.945312500000000 78 79 80
0.569561203262704 -1.685195406824695 6.019531250000000 92 90 89
0.576583697008318 -1.674454234994479 6.093750000000000 126 124 117
0.584345400621892 -1.665051618552644 6.175781250000000 189 187 178
0.590998289433526 -1.651701535083445 6.246093750000000 255 255 255
0.596172758509242 -1.633573070730627 6.300781250000000 201 200 198
0.621305894019861 -1.668476580799988 6.566406250000000 105 103 100
0.656418362747932 -1.726885604561959 6.937500000000000 81 83 83
0.665288881163444 -1.713853760050642 7.031250000000000 73 77 79
0.672311374909058 -1.695192416279191 7.105468750000000 69 75 78
0.678225053852733 -1.673028104926058 7.167968750000000 66 72 74
0.681921103192530 -1.644868084422473 7.207031250000000 63 69 71
0.684508337730388 -1.613690004823406 7.234375000000000 65 71 74
0.688204387070185 -1.584782417070266 7.273437500000000 62 68 71
0.692270041343961 -1.556301652768218 7.316406250000000 58 63 66
0.695596485749779 -1.525754970348491 7.351562500000000 54 58 60
0.699662140023555 -1.496425616195596 7.394531250000000 96 99 97
0.701510164693454 -1.462029960824130 7.414062500000000 174 184 191
0.705575818967230 -1.431932834901421 7.457031250000000 173 190 205
0.706684633769169 -1.395552079493310 7.468750000000000 186 196 202
0.708163053505088 -1.359759783698356 7.484375000000000 254 255 255
0.708902263373048 -1.322426887312439 7.492187500000000 255 255 255
0.709641473241007 -1.285013172845489 7.500000000000000 230 245 252
0.709271868307027 -1.245571420775710 7.496093750000000 140 190 235
0.710011078174987 -1.208056683707468 7.503906250000000 140 184 228
0.709271868307027 -1.168026472024532 7.496093750000000 154 193 233
0.711119892976926 -1.132196295714729 7.515625000000000 107 133 162
0.711119892976926 -1.093322798737849 7.515625000000000 137 174 212
0.715555152184682 -1.061025908632659 7.562500000000000 196 219 243
0.711489497910905 -1.016103650836471 7.519531250000000 173 194 220
0.705575818967230 -0.969087684825343 7.457031250000000 194 211 231
0.691900436409982 -0.912482086213292 7.312500000000000 249 251 251
0.689313201872124 -0.871388596848586 7.285156250000000 113 115 114
0.222317367788784 -0.268887324766765 2.349609375000000 51 54 53
0.223241380123733 -0.257801364459153 2.359375000000000 50 54 55
0.220838948052865 -0.242954811172753 2.333984375000000 48 51 53
0.221023750519855 -0.231075817523734 2.335937500000000 47 51 52
0.220099738184906 -0.218077989683507 2.326171875000000 42 46 49
0.218990923382967 -0.205008181759542 2.314453125000000 39 43 46
0.218436515981997 -0.192548302231826 2.308593750000000 36 40 43
0.217697306114038 -0.179996238100115 2.300781250000000 34 38 41
0.216588491312099 -0.167239600240152 2.289062500000000 31 35 37
0.217327701180058 -0.155930125946866 2.296875000000000 30 34 37
0.217882108581028 -0.144417342188164 2.302734375000000 23 29 33
0.218066911048018 -0.132619166620177 2.304687500000000 40 42 41
0.222317367788784 -0.123051097542689 2.349609375000000 117 94 89
0.395107674424290 -0.197090683343734 4.175781250000000 210 131 86
0.398803723764087 -0.177133698065001 4.214843750000000 215 169 131
0.403978192839802 -0.157348463051006 4.269531250000000 155 147 136
0.399173328698066 -0.133656098994907 4.218750000000000 189 108 101
