ply
format ascii 1.0
element vertex 730
property double x
property double y
property double z
property uchar red
property uchar green
property uchar blue
end_header
0.305650839683385 0.166505260300923 4.372520028268719 67 64 59
0.302040105941898 0.186708736896843 4.329548991571247 101 98 87
0.295614218215244 0.204392907180707 4.251576719352860 128 121 107
0.290159365068258 0.222046528764053 4.185603700728635 131 125 107
0.284950299654130 0.239228567318570 4.122629888529799 136 130 112
0.280067133764380 0.256060196013536 4.063655382415372 147 139 122
0.274946796214136 0.272043739531255 4.001679943374148 156 148 129
0.270393063784694 0.287983688204022 3.946704035208788 160 152 133
0.265762719843129 0.303266348498794 3.890727325993210 165 154 136
0.261376985655778 0.318257849152287 3.837750059248135 168 157 139
0.256673833390281 0.332300711274978 3.780771786893826 172 161 143
0.252616220058464 0.346601575109541 3.731793381119517 175 165 144
0.248802442380610 0.360729843243215 3.685814572931073 179 169 148
0.244911615655707 0.374267837399985 3.638835051366310 179 169 148
0.240863729061832 0.387078919548784 3.589854696533769 178 168 147
0.237299609618092 0.400142784951683 3.546874319193908 177 167 146
0.233418206722336 0.412237392008058 3.499892909268229 176 166 145
0.229860010828346 0.424393985519280 3.456911344958650 181 171 150
0.226464663726947 0.436390838962517 3.415929453923714 188 178 157
0.223391850496660 0.448552777939199 3.378947543387800 192 182 161
0.220161708145139 0.460029044539351 3.339964853537278 190 180 159
0.216774438611581 0.470788709039392 3.298981343907271 186 176 155
0.213389928913701 0.481125667317175 3.257997281257281 186 176 155
0.210327414582411 0.491710190391284 3.221013307012652 196 182 160
0.207107840382149 0.501567801457422 3.182028499500246 198 184 162
0.204209857670083 0.511734836767046 3.147043861322953 199 185 163
0.201075107175916 0.520991927452264 3.109058209289110 198 184 162
0.198659982887603 0.531550929772096 3.080073730696443 200 186 164
0.196406091878314 0.542197629812582 3.053089249097434 198 184 162
0.193915197491194 0.551970469906171 3.023103800850897 196 182 160
0.192142482079024 0.563266884653365 3.002119816043819 197 183 161
0.189416704675631 0.571841102702469 2.969132976268547 199 185 163
0.186534136655528 0.579647169112162 2.934145249272327 207 193 171
0.182859201418704 0.584901215807298 2.889154772207907 210 196 174
0.179028417948083 0.589242772152985 2.842163219086450 210 198 176
0.175359608200204 0.593558617232865 2.797171514587435 209 197 175
0.172487541018294 0.599756338016404 2.762181683417623 215 203 181
0.169141803646049 0.604154789366851 2.721189851511292 219 207 185
0.139945863898726 0.553055028992359 2.356144486021962 178 167 149
0.137807356727196 0.558420510483502 2.330153036216830 145 137 121
0.137412326684714 0.569359195715232 2.326167582608569 76 67 54
0.137334108902791 0.581339308648504 2.326183256004173 81 74 64
0.137414095311950 0.593871065156128 2.328199533366587 153 146 136
0.137335810216961 0.605861487997260 2.328215220250483 99 92 82
0.137415594686925 0.618424174228463 2.330231538077773 85 78 70
0.137337242278870 0.630424906977455 2.330247238449962 140 133 125
0.137258889870816 0.642425639726447 2.330262938822150 88 81 73
0.137180537462762 0.654426372475440 2.330278639194339 45 40 36
0.137259985367399 0.667040608245943 2.332295024463090 54 51 48
0.137181565646279 0.679051650902795 2.332310738323572 46 45 42
0.137260811611720 0.691696816396878 2.334327164057199 57 56 55
0.136551931083555 0.701140437981226 2.326339989960214 65 62 59
0.135843589059914 0.710501580302695 2.318352707956892 52 49 46
0.135214517414477 0.720112769641690 2.311365694216244 49 46 43
0.134192425874750 0.727963383453988 2.299376671491760 71 68 63
0.133328471213040 0.736375950748497 2.289388266222375 45 42 37
0.132307927873816 0.743989436680016 2.277398933267168 75 72 61
0.131523984034031 0.752538642005591 2.268410647889245 228 220 203
0.130504955238777 0.759920155010261 2.256421011447462 204 195 184
0.129486734200307 0.767177949120611 2.244431213146172 71 63 60
0.128940298586341 0.776523690084133 2.238443793253585 66 63 60
0.128315804229347 0.785433805688651 2.231455862309062 79 74 70
0.127456494169146 0.793134989340823 2.221466526347513 161 150 134
0.126284276006177 0.799196770635574 2.207475281061148 220 207 181
0.124721191967009 0.803168059352111 2.188481595165594 211 198 172
0.123551026852532 0.808915388457134 2.174489938486317 209 196 170
0.122225215443456 0.813719297489127 2.158497165285123 210 196 173
0.120978741725649 0.818762943630786 2.143504646858310 206 192 170
0.119655050678131 0.823242090565190 2.127511448775911 205 191 169
0.118488823377977 0.828386290060406 2.113519003031535 206 192 170
0.117245378748111 0.832965990348366 2.098525877631571 205 193 171
0.115924817758131 0.836965726567283 2.082532052343582 202 190 168
0.114761518576319 0.841661445070590 2.068539019858492 196 184 164
0.113677220520450 0.846648450222862 2.055546309589246 193 181 161
0.112515772447935 0.851060646260021 2.041552906176120 195 183 163
0.111199283898408 0.854436633053410 2.025558264846448 194 182 162
0.110117745678219 0.859000931983424 2.012565001557220 195 183 163
0.109115006644777 0.863887447285984 2.000572100948710 202 189 172
0.108035184907753 0.868188843565569 1.987578493708029 207 194 177
0.107111951848245 0.873289321208145 1.976585814153171 209 196 179
0.106111636085155 0.877804679827746 1.964592427966141 215 204 186
0.105034338588082 0.881719454562583 1.951598314914500 218 207 189
0.104113427829327 0.886464240383990 1.940605170013559 221 210 192
0.103193257514292 0.891095617218937 1.929611876741403 221 210 192
0.102351516164144 0.896105914919660 1.919619020335574 224 211 194
0.101355138215377 0.900018143929454 1.907624845083447 221 208 191
0.100670052855809 0.905817213085307 1.899632902875149 216 203 186
0.099907918449193 0.911026008264255 1.890640247290533 213 200 183
0.098991282070088 0.915116114936555 1.879646245883033 214 201 184
0.098075386134701 0.919092812622395 1.868652096104319 217 204 187
0.097392690388953 0.924525880049220 1.860659675061646 215 202 185
0.096478174371406 0.928291224623931 1.849665248772941 214 201 184
0.096183752948842 0.936211716081579 1.846675787638708 214 201 184
0.094960906116969 0.937636584564392 1.831678534821314 214 201 184
0.322334530165314 -1.099229439962000 4.206857659069475 134 106 96
0.319124964453091 -1.068974727339606 4.171899435088874 170 97 85
0.316881604461212 -1.041716900879901 4.147936600707567 154 91 82
0.316741997163700 -1.020334151978346 4.147964575425711 125 101 93
0.316339723688186 -0.998263412967392 4.144993638309107 166 146 137
0.316200217360271 -0.976896128927627 4.145021592794813 161 100 101
0.315710758713949 -0.954652764373437 4.141050944214354 123 91 96
0.315571387012166 -0.933306100149392 4.141078871723475 146 90 95
0.315432015310382 -0.911959435925347 4.141106799232595 142 117 115
0.315904353378626 -0.892037658569018 4.148132423734573 126 129 126
0.316114159894998 -0.871448510919009 4.152159109425220 57 59 50
0.316672976346864 -0.851591105073386 4.160184587018121 95 93 74
0.317231254294207 -0.831651219964884 4.168210172517362 115 109 79
0.317788993737027 -0.811628855593502 4.176235865922941 161 152 89
0.318346194675324 -0.791524011959240 4.184261667234857 112 121 106
0.318554116425867 -0.770646186889152 4.188288730597686 96 102 96
0.318674617409873 -0.749559651598318 4.191316129705682 168 151 138
0.319230505743397 -0.729253764760787 4.199342194039298 164 101 96
0.319437518767558 -0.708236755934590 4.203369439494073 123 91 96
0.319992464718166 -0.687786530387020 4.211395692663780 158 89 96
0.320198804611674 -0.666666422482223 4.215423073001477 157 123 116
0.320752808179367 -0.646071858224614 4.223449515007276 132 131 126
0.321219323667459 -0.625258273838397 4.230476306246534 55 56 44
0.321424620208454 -0.603978362361771 4.234503895652762 106 105 81
0.321977176545243 -0.583162135085172 4.242530627656843 134 126 79
0.322876588799434 -0.562747732561441 4.254556583188533 169 161 101
0.323080673705253 -0.541282242743336 4.258584415384022 110 81 85
0.323631614528474 -0.520218577678098 4.266611471107119 191 109 89
0.323835026303639 -0.498649988781393 4.270639438185530 176 125 110
0.324298310764595 -0.477341528817899 4.277666876862816 99 104 104
0.324501083065639 -0.455674995796524 4.281694972080003 84 98 100
0.325050172779563 -0.434327808265137 4.289722398731135 135 140 112
0.325598723988965 -0.412898141470871 4.297749933288608 189 179 96
0.326146736693843 -0.391385995413725 4.305777575752417 135 115 95
0.326607665197512 -0.369716688675132 4.312805486519933 143 81 96
0.326808586389260 -0.347766633187609 4.316833952665157 153 124 112
0.327355151863234 -0.326032824111473 4.324861885127250 135 134 92
0.327555399924328 -0.303979669545350 4.328890486155397 115 103 69
0.328101023015387 -0.282101521759176 4.336918607453581 115 115 105
0.328300597945828 -0.259945268114453 4.340947343364651 67 77 80
0.328499903624008 -0.237747774838291 4.344976133228890 82 83 79
0.328698940049926 -0.215509041930689 4.349004977046298 76 73 68
0.328897707223583 -0.193229069391647 4.353033874816875 75 72 67
0.329009962357086 -0.170879570387967 4.356062926240672 75 72 67
0.329553061208195 -0.148614801057044 4.364091553349817 76 73 68
0.330095621554781 -0.126267552463242 4.372120288365299 75 72 67
0.330637643396844 -0.103837824606559 4.380149131287119 75 72 67
0.330834694087335 -0.081294949417088 4.384178373009149 74 71 66
0.331375773546484 -0.058720882850366 4.392207404767061 74 71 66
0.331572151106322 -0.036074908582296 4.396236781372012 73 70 65
0.331682252221733 -0.013395492527098 4.399266264421163 73 70 65
0.331878124933581 0.009327806049922 4.403295742188306 73 70 65
0.332073728393167 0.032092344258383 4.407325273908619 73 70 65
0.332269062600492 0.054898122098283 4.411354859582101 69 66 61
0.332120637291420 0.077631468929492 4.411384601266531 80 77 72
0.331628856344344 0.100230525304851 4.407414418032154 96 93 88
0.330794123637655 0.122633431777199 4.399444228949219 73 70 65
0.329702614646182 0.144822211421201 4.388473947805964 51 48 43
0.327840204639299 0.166456244796970 4.368503505132236 70 67 62
0.323665125242722 0.186420884414111 4.321532571122943 105 102 91
0.316837420128245 0.204061189469847 4.243560539700518 130 123 109
0.311385156957746 0.221929359113186 4.181587803304549 133 127 109
0.306193877138615 0.239367286343625 4.122614315950634 137 131 113
0.300749859818620 0.255972492274119 4.060639927238863 145 137 120
0.295395551909383 0.272018451116628 3.999664744179989 151 143 124
0.290387359473829 0.287775994192729 3.942688933019937 156 148 129
0.285468472570642 0.303036149628005 3.886712408442537 163 152 134
0.280638790230222 0.317814382284246 3.831735190680225 169 158 140
0.275983612857549 0.332226744038293 3.778757368869040 172 161 143
0.271758841667557 0.346621390520674 3.730779210417102 177 167 146
0.267451967443191 0.360410264502865 3.681800322135243 179 169 148
0.263318992368983 0.373926056753602 3.634820951199141 178 168 147
0.259189181008846 0.386957283334922 3.587840946313304 179 169 148
0.255232999546606 0.399756667816227 3.542860512726394 177 167 146
0.251279847172306 0.412092106443835 3.497879472166333 174 164 143
0.247500055443642 0.424236942602869 3.454898056858367 180 170 149
0.243893422421418 0.436222106016908 3.413916307267375 189 179 158
0.240459746166437 0.448078526409534 3.374934263858234 188 178 157
0.236858565502505 0.459228587286918 3.333951421715568 188 178 157
0.233430206979686 0.470270524958607 3.294968312731339 187 177 156
0.229834478674047 0.480585483299333 3.253984378037000 186 176 155
0.226581365562693 0.491148141082370 3.217000516632682 197 183 161
0.223330743034756 0.501329332274588 3.180016156161551 198 184 162
0.220082611090238 0.511129056875988 3.143031296623607 199 185 163
0.216836969729136 0.520547314886569 3.106045938018849 200 186 164
0.214187623446100 0.530901654929365 3.076061365225875 200 186 164
0.211625092112012 0.541140073922155 3.047076578082364 199 185 163
0.209403560458642 0.551873630145894 3.022092187947888 199 185 163
0.207268439875828 0.562553124766786 2.998107664392630 198 184 162
0.204372683520069 0.571105612170801 2.965120922342328 196 182 160
0.201309826633751 0.578889880612414 2.930133300628751 206 192 170
0.198418580253369 0.586751604189812 2.897145654862868 209 195 173
0.196460084999860 0.596740465810922 2.875160102377532 211 199 177
0.194080270827490 0.605355205142604 2.848173065613493 208 196 174
0.190687958451160 0.610876187155285 2.809182733648758 210 198 176
0.186284359506046 0.613117833507486 2.758188863694066 223 211 189
0.184671340252099 0.622916223486858 2.740202811246329 225 213 191
0.180948899255103 0.626277018149207 2.697209903913360 220 208 188
0.154873530335989 0.586697885184717 2.391177307153977 193 184 171
0.150662880138524 0.585748745881097 2.342179137358333 116 109 99
0.149404525117559 0.593949361795846 2.328190743796303 68 61 51
0.149663133606302 0.607063826247384 2.332207650475063 146 139 129
0.149753093363983 0.619647199617300 2.334223987721266 112 105 97
0.149842918495533 0.632251192802935 2.336240351944055 61 54 46
0.149427874442943 0.643096954217941 2.332254792056506 96 89 81
0.149181277182219 0.654504736438149 2.330269842066386 95 90 86
0.149102924774165 0.666505469187141 2.330285542438574 69 66 63
0.149024572366111 0.678506201936134 2.330301242810763 55 54 51
0.148778244357648 0.689872744524903 2.328316238867474 39 38 37
0.148196234400629 0.699929667161787 2.322329772340063 42 39 36
0.147614628322003 0.709924730351510 2.316343224882898 70 67 64
0.147117312952375 0.720190494035975 2.311356968886156 42 39 36
0.146201068277705 0.728716133701984 2.301368749776337 71 68 63
0.145285496733689 0.737138674289393 2.291380395783597 71 68 63
0.144203026598309 0.744762066190820 2.279391121662703 136 133 122
0.143205116424189 0.752614918955548 2.268402085049063 207 199 182
0.142124228145845 0.759996028022266 2.256412493953301 80 71 60
0.141211517407106 0.767980397525627 2.246423566708139 56 48 45
0.140466782268775 0.776598957189211 2.238435343778455 80 77 74
0.139806203213312 0.785508837163256 2.231447439285777 82 77 73
0.138728175740245 0.792451775145925 2.219457274937594 188 177 161
0.137483855493403 0.798502775271873 2.205466069066627 217 204 178
0.135989927803234 0.803241643382387 2.188473334632215 209 196 170
0.134580627387391 0.808199662448344 2.172480824216766 208 195 169
0.133172403980593 0.812992722988541 2.156488097988641 209 195 172
0.131848673221990 0.818025554299900 2.141495622756062 207 193 171
0.130609334141983 0.823313621244210 2.127503418751469 205 191 169
0.129370937444890 0.828457349478481 2.113511025910783 202 188 166
0.127883539122060 0.832196156526580 2.096516983112022 199 187 165
0.126647128160395 0.837035742478982 2.082524192366716 195 183 161
0.125245164868673 0.840869981588203 2.066530211727410 193 181 161
0.124093919685856 0.845846239233168 2.053537537094727 197 185 165
0.122860369529468 0.850247654101522 2.039544173096999 198 186 166
0.121627761755995 0.854504730259837 2.025550620263179 197 185 165
0.120479209095791 0.859068591590403 2.012557406098806 201 189 169
0.119248452431615 0.863042145282569 1.998563482336949 212 199 182
0.118267774402222 0.868255661635148 1.987570992720491 222 209 192
0.117204825055790 0.872889180257186 1.975577806994843 225 212 195
0.116142683466143 0.877398979984905 1.963584459409687 226 215 197
0.115164294080972 0.882261959470246 1.952591511191291 226 215 197
0.114103734348360 0.886529476363256 1.940597846631267 225 214 196
0.113126859507158 0.891160482921748 1.929604594926297 224 213 195
0.112150725109676 0.895678080493779 1.918611194850112 210 197 180
0.111092521334351 0.899584750611691 1.906617058199858 215 202 185
0.110366229975923 0.905378395521646 1.898625139478095 220 207 190
0.109557734613522 0.910581732793201 1.889632511158848 219 206 189
0.108501718512821 0.914153330905663 1.877637936139096 220 207 190
0.107611860559764 0.918637486690568 1.867644429618713 219 206 189
0.106887958815155 0.924065129871494 1.859652032062574 218 205 188
0.105916771927975 0.927824949215819 1.848657640596908 218 205 188
0.105524345065339 0.935206581589879 1.844667548643158 216 203 186
0.104389322331268 0.937698151440594 1.831671623332041 216 203 186
0.350293016707032 -1.137609412776647 4.272786974280821 166 163 124
0.343278674139502 -1.097088496522766 4.198844909327863 150 107 102
0.340260199463951 -1.067855246631214 4.167885216721221 178 100 96
0.337986032794680 -1.040858454145963 4.144922066066491 168 97 95
0.337846526466766 -1.019491170106198 4.144950020552196 130 110 105
0.337707020138851 -0.998123886066433 4.144977975037902 168 139 129
0.337567513810937 -0.976756602026668 4.145005929523607 153 103 100
0.337057435336918 -0.954513372118462 4.141035296058488 109 85 91
0.336918063635135 -0.933166707894417 4.141063223567609 146 90 93
0.337148994827194 -0.912654749907374 4.145089792980723 146 129 126
0.337287114700064 -0.891898030683571 4.148116749126862 152 158 152
0.337887574685715 -0.872102214993139 4.156142115559330 87 88 74
0.338487496166843 -0.852223920039829 4.164167589898137 108 108 86
0.339086879143448 -0.832263145823639 4.172193172143281 119 110 68
0.339685723615531 -0.812219892344568 4.180218862294764 163 156 90
0.339914534446032 -0.791383172259937 4.184245856589085 104 115 111
0.340420096407468 -0.771022988189087 4.191272027891637 110 113 108
0.340648267763848 -0.750088323979785 4.195299150324735 182 150 141
0.340876169867967 -0.729112420139044 4.199326326711001 153 96 91
0.341472759352361 -0.708723784746665 4.207352468720273 111 79 88
0.341699988325827 -0.687644781827324 4.211379779989462 151 89 96
0.342295635427306 -0.667111807724906 4.219406110834828 145 136 135
0.342522191270118 -0.645929705726966 4.223433556986937 131 134 131
0.343024791456679 -0.625115885710278 4.230460321774351 77 78 62
0.343618991327253 -0.604361248588870 4.238486942617999 106 105 79
0.344212652693305 -0.583524132204583 4.246513671367985 141 130 66
0.344805775554834 -0.562604536557417 4.254540508024309 161 153 104
0.345030480288349 -0.541138912093327 4.258568325104457 113 81 86
0.345622660766963 -0.520074977736122 4.266595350596874 191 117 74
0.346122400148248 -0.498822986635385 4.273622688636707 199 167 146
0.346346061529250 -0.477197558599466 4.277650714785386 106 111 111
0.346936794776960 -0.455911961223271 4.285678030276086 92 101 98
0.347526989520146 -0.434543884584197 4.293705453673123 142 140 103
0.347749573892103 -0.412753498022518 4.297733695634477 192 181 104
0.348705763492951 -0.391560293517408 4.309760624186213 138 110 100
0.349202642068959 -0.369870131332623 4.316788535478468 154 83 91
0.349424048462272 -0.347899321383396 4.320817013484936 151 128 116
0.349645185603325 -0.325887271802729 4.324845545444574 124 128 97
0.350232452228169 -0.304070714171746 4.332873555582325 115 108 84
0.350452916238568 -0.281955565512479 4.336902222424885 100 107 103
0.350673110996706 -0.259799177221772 4.340930943220614 76 87 90
0.350893036502583 -0.237601549299626 4.344959717969513 80 81 77
0.351478552987728 -0.215516934064284 4.352988078802864 76 73 68
0.351332079757551 -0.193082574561014 4.353017429326817 76 73 68
0.351825390741096 -0.170845987259651 4.360046055498561 76 73 68
0.352409594621467 -0.148560328821040 4.368074679353609 77 74 69
0.352627938270308 -0.126120418064184 4.372103771077376 76 73 68
0.353211199767765 -0.103690420915534 4.380132583768516 75 72 67
0.353793922760699 -0.081177944504004 4.388161504365995 74 71 66
0.354011189400494 -0.058573075221389 4.392190811902437 74 71 66
0.354228186788029 -0.035926966307334 4.396220173392049 73 70 65
0.354353752774213 -0.013247449267649 4.399249645104694 73 70 65
0.354570245313757 0.009475983955356 4.403279107756497 73 70 65
0.354786468601040 0.032240656809800 4.407308624361470 73 70 65
0.354638177918099 0.054953383825289 4.407338339069315 68 65 60
0.354853997326989 0.077779916126893 4.411367936604042 84 81 76
0.353977621086515 0.100244412754434 4.403397858681539 96 93 88
0.353465624190135 0.122781475036649 4.399427609632750 70 67 62
0.351953704459056 0.144794219670920 4.384457406300046 48 47 42
0.349624758352512 0.166210675452055 4.360487021493215 73 71 63
0.345207665232760 0.186132493347444 4.313516211135999 107 104 93
0.338341445065507 0.203966457355485 4.239544465195927 133 126 112
0.332569709191841 0.221811920170352 4.177571936111145 137 129 112
0.327074421540315 0.239227241556806 4.118598644731911 139 131 114
0.321673829973808 0.256109124286421 4.060624588947469 144 136 119
0.315823687776934 0.271993028056017 3.997649560101169 148 140 123
0.310431072808670 0.287653186704227 3.939673905954096 154 146 129
0.305132985642761 0.302805681465248 3.882697521122544 159 151 132
0.300019915297643 0.317561442923488 3.827720484219574 165 158 136
0.295091659834119 0.331951400802527 3.774742835710062 171 160 142
0.290619585337899 0.346323811717380 3.726764831665621 174 163 145
0.286241230887249 0.360312277639363 3.679786258796210 178 168 147
0.281866040150671 0.373816177891928 3.632807051977062 177 167 146
0.277494013128163 0.386835512475075 3.585827211208180 179 169 148
0.273305925917401 0.399623072281200 3.540846934180554 176 166 145
0.269120867794579 0.411946686233627 3.495866050179776 174 164 143
0.265119480231242 0.424079765040473 3.452884783873425 180 170 149
0.261120987129713 0.435769517809340 3.409902937570507 190 180 159
0.257666909026234 0.447898036111738 3.372921266203509 190 180 159
0.253854442441476 0.459036406959925 3.331938565504788 191 181 160
0.250225107911680 0.470066721925410 3.292955590406832 189 177 157
0.246418093685215 0.480369990236940 3.251971797156438 187 175 153
0.242974314480733 0.490921092636764 3.214988062080725 194 182 160
0.239533025859668 0.501090728445770 3.178003827938197 198 184 162
0.236274330789041 0.511234787634953 3.143019427302773 199 185 163
0.232837956021746 0.520651800170182 3.106034208514911 200 186 164
0.229853992690094 0.530628620581382 3.074049389536488 200 186 164
0.226602331834795 0.539695294399200 3.039063579374522 199 185 163
0.224252195510582 0.550386769454099 3.014079229757753 200 186 164
0.221634092410461 0.560209337547054 2.986093942910611 196 182 160
0.219107723620484 0.569952102929009 2.959108485143121 195 181 159
0.216942435834398 0.580272619450777 2.936123517175664 206 192 170
0.213791091705074 0.587944977305449 2.902135816336087 210 196 174
0.211270276242987 0.596837175288958 2.875149245784486 212 198 176
0.209558712497319 0.607516456483427 2.857164414604767 209 195 173
0.206861866508664 0.615429015070412 2.828176695437568 210 196 174
0.204346267809141 0.623522195194774 2.801189079543317 224 210 187
0.201294802870867 0.629867251487390 2.768199575700028 227 213 190
0.198155978971696 0.635621966480109 2.734209366038091 225 212 186
0.195288083623308 0.641791952488934 2.703219500121667 225 214 188
0.192422274979946 0.647642331354099 2.672229216068184 227 215 192
0.188663759817058 0.650517311052529 2.631235704503218 220 208 185
0.182492971509941 0.645659762310283 2.563233872515384 225 213 193
0.163362019129744 0.600097218859252 2.350188431592178 180 169 153
0.163104236885322 0.611638962558648 2.348203664507529 144 133 117
0.162667899874382 0.622587688406270 2.344218254618240 186 177 164
0.161874587956536 0.632329758734621 2.336231532143092 117 109 101
0.161617478842767 0.643768403355418 2.334246630175519 92 88 81
0.161538991808582 0.655789755920130 2.334262357524292 63 63 55
0.161282084634010 0.667197470817347 2.332277415091843 52 54 45
0.161025312085568 0.678584565898844 2.330292445682809 30 31 25
0.160768674163257 0.689951041164621 2.328307449297191 21 18 17
0.160155734464693 0.700007761832528 2.322321005442790 26 20 22
0.159543198644522 0.710002623053276 2.316334480658635 60 55 55
0.159020108490273 0.720268218430261 2.311348243556068 75 72 69
0.158052314246361 0.728793521481310 2.301360062234600 70 66 57
0.157263142082034 0.737901532476274 2.293372510229477 111 108 95
0.156118745150499 0.745534830347608 2.281383294942897 200 197 184
0.155064063137148 0.753397622743740 2.270394313384734 87 83 76
0.153743501052914 0.760071901034271 2.256403976459140 38 33 33
0.152956920441602 0.768782980576627 2.248415905154765 82 79 76
0.152170878334813 0.777411580856102 2.240427725944053 78 74 67
0.151296602197277 0.785583868637861 2.231439016262492 136 124 112
0.150156715241120 0.792526402682578 2.219448897260329 214 201 175
0.148662815152932 0.797808645262187 2.203456872187446 212 199 171
0.147258663639460 0.803315227412664 2.188465074098836 210 197 171
0.145766883912830 0.808272707894684 2.172472624144747 207 194 168
0.144276181195246 0.813065229850945 2.156479958377983 207 193 170
0.142875126082780 0.818097556239864 2.141487539827930 205 191 169
0.141563617605834 0.823385151923230 2.127495388727026 204 190 168
0.140076044945788 0.827698263164003 2.111502095754672 202 188 166
0.138678018921262 0.832266643699224 2.096509070231466 199 187 165
0.137192566622774 0.836254992842408 2.080515352377906 198 186 164
0.135884995960151 0.840939458915967 2.066522412211905 194 182 162
0.134489999023565 0.845043893597489 2.051528779715548 198 187 169
0.133184346783304 0.849434527297039 2.037535455133219 201 190 172
0.131879636925958 0.853680822286550 2.023541941714797 205 194 176
0.130664137138806 0.858233936109808 2.010548763186986 219 208 192
0.129449512421503 0.862653021130886 1.997555409311377 230 219 203
0.128412163522476 0.867861012253079 1.986562954517959 240 232 215
0.127287388349488 0.872488971983236 1.974569807394184 240 232 215
0.126163420933283 0.876993212819073 1.962576498410902 239 228 212
0.125128360678478 0.881850667074027 1.951583585015547 235 224 208
0.124005975119309 0.886112625075156 1.939589959057397 233 220 206
0.122884397316924 0.890250864181964 1.927596171239740 220 207 192
0.121939624141359 0.895250178744907 1.917603376922319 171 158 141
0.120907559317962 0.899648842100093 1.906609863297958 193 180 163
0.120140028304140 0.905442217718080 1.898617974806875 224 211 194
0.119197240864002 0.910137389999153 1.888624782584833 226 213 196
0.118167262745631 0.914216446210681 1.877630850823412 225 212 195
0.117050194918623 0.917663921490872 1.865636159290174 223 212 194
0.116285120831687 0.923080985471971 1.857643778476423 223 212 196
0.115345059570695 0.927358606484716 1.847650039978544 221 210 194
0.115019775719651 0.935268586065528 1.844660588029030 218 207 191
0.113730043019343 0.937220926556198 1.830664073465581 218 207 191
0.371241778163023 -1.134660164889832 4.261775271320402 161 158 119
0.364532338533487 -1.095947621784245 4.194830631023589 151 108 103
0.361354194819418 -1.066736035214789 4.163871028584248 181 103 99
0.358961598767022 -1.039760636759666 4.140907937866140 175 104 102
0.358822227065238 -1.018413972535622 4.140935865375260 122 102 97
0.359074316589517 -0.997984359165474 4.144962311766696 163 134 124
0.358934810261603 -0.976617075125709 4.144990266252401 165 115 112
0.358795303933688 -0.955249791085944 4.145018220738106 114 90 96
0.358655797605774 -0.933882507046180 4.145046175223812 158 102 105
0.358516291277860 -0.912515223006415 4.145074129709517 147 130 127
0.359060664116911 -0.892572354573421 4.152099728284390 123 129 123
0.359311575662546 -0.871962317815724 4.156126410720939 87 88 74
0.359952736799068 -0.852083753570446 4.164151854829066 110 110 88
0.360593359431066 -0.832122710062287 4.172177406843529 147 138 96
0.361233443558542 -0.812079187291249 4.180203066764332 181 174 108
0.361482874216740 -0.791242332560633 4.184230045943313 98 109 105
0.362024520876645 -0.770881912859311 4.191256190794020 91 94 89
0.362273312060722 -0.749947114004026 4.195283298111778 158 126 117
0.362521833992538 -0.728971075517300 4.199310459382703 156 99 94
0.363159663132325 -0.708582170832953 4.207336571161296 109 77 86
0.363796953767589 -0.688110786885727 4.215362790846227 162 100 107
0.364044398690360 -0.666969789873242 4.219390167929830 148 139 138
0.364680746942709 -0.646354067215977 4.227416576450851 123 126 123
0.364830259245899 -0.624973497582158 4.230444337302167 87 88 72
0.365465698771866 -0.604218591168782 4.238470927915135 116 115 89
0.366100599793311 -0.583381205492527 4.246497626434442 178 167 103
0.366734962310234 -0.562461340553393 4.254524432860085 163 155 106
0.366980286871446 -0.540995581443319 4.258552234824894 109 77 82
0.367613707005453 -0.519931377794145 4.266579230086630 195 121 78
0.368149531085206 -0.498679151062937 4.273606541674617 193 161 140
0.368393812293906 -0.477053588381034 4.277634552707956 79 84 84
0.369025785197008 -0.455767721712871 4.285661837967975 77 86 83
0.369657219595588 -0.434399375781828 4.293689231134333 152 150 113
0.370288115489646 -0.412948550587906 4.301716732207029 193 182 105
0.370918472879180 -0.391415246131103 4.309744341186062 131 103 93
0.371451436153657 -0.369724848315847 4.316772226026472 161 90 98
0.371693462374667 -0.347753903720635 4.320800688917600 148 125 113
0.371935219343416 -0.325741719493984 4.324829205761897 121 125 94
0.372176707059904 -0.303688295635893 4.328857776559365 156 149 125
0.372804809461750 -0.281809609265782 4.336885837396188 101 108 104
0.373045624047584 -0.259653086329091 4.340914543076577 61 72 75
0.373286169381157 -0.237455323760961 4.344943302710136 81 82 78
0.373912925521696 -0.215370439233651 4.352971633312806 76 73 68
0.374056211366342 -0.193036203122786 4.356000641831154 76 73 68
0.374295847973533 -0.170699256798546 4.360029583556658 77 74 69
0.374921291509297 -0.148413329067967 4.368058177181026 77 74 69
0.375160254985835 -0.125973283665127 4.372087253789453 76 73 68
0.375784756138685 -0.103543017224509 4.380116036249913 75 72 67
0.376408718787013 -0.081030271521010 4.388144926616711 75 72 67
0.376646605254505 -0.058425267592412 4.392174219037813 74 71 66
0.376884222469736 -0.035779024032373 4.396203565412085 73 70 65
0.377025253326692 -0.013099406008199 4.399233025788226 73 70 65
0.377262365693933 0.009624161860789 4.403262473324689 73 70 65
0.377499208808912 0.032388969361218 4.407291974814321 73 70 65
0.377735782671631 0.055195016493086 4.411321530257123 68 65 60
0.377202627443030 0.077814423392196 4.407351404230011 86 83 78
0.376669741466692 0.100392590659867 4.403381224249730 88 85 80
0.375848779242164 0.122813133623445 4.396411049067749 63 60 55
0.374547880657673 0.144941758007929 4.384440843666103 48 47 42
0.371711024169943 0.166160986718181 4.356470573933434 76 74 66
0.366763740109230 0.185897823449515 4.306499912259032 111 108 97
0.359804230347376 0.203871455949155 4.235528420922015 135 128 114
0.353713021770542 0.221694211935549 4.173556099148420 137 129 112
0.347913726286621 0.239086927478019 4.114583003743870 140 132 115
0.342214281844643 0.255946238025146 4.056609140155275 144 136 119
0.336231203816788 0.271967470349422 3.995634391137690 148 140 123
0.330539668659988 0.287615366723003 3.937658942674756 154 146 129
0.324756259059486 0.302574944010523 3.878682664033231 159 151 132
0.319359800709670 0.317308234270763 3.823705807989604 163 156 134
0.314254178443721 0.331776442612838 3.771728394127694 171 160 142
0.309439089352847 0.346025963622118 3.722750483144820 172 161 143
0.304818586552892 0.359992227638068 3.675772060904070 176 166 145
0.300201247467009 0.373473925984601 3.628793004713585 177 167 146
0.295587072095196 0.386471058661715 3.581813314573364 178 168 147
0.291167146448977 0.399236483884801 3.536833180616731 178 168 147
0.286750249890699 0.411537963254187 3.491852439686945 180 170 149
0.282527333805752 0.423648974800985 3.448871308893916 185 175 154
0.278498196254942 0.435600448248772 3.407889828702520 192 182 161
0.274662635299073 0.447423313321129 3.368908039577633 195 185 164
0.270638950106555 0.458539684232260 3.327925466834563 194 184 163
0.266808706882847 0.469548066583680 3.288942612134589 191 179 159
0.262790474048622 0.479829334958154 3.247958946839847 189 177 155
0.259156096064076 0.490358572066906 3.210975324604445 195 183 161
0.255714688856882 0.500851989970968 3.175991514830184 198 184 162
0.252085224726106 0.510628603805943 3.139006907949447 198 184 162
0.248648596746551 0.520390018251947 3.104022140506435 200 186 164
0.245309463851653 0.529978874477707 3.070037076969609 200 186 164
0.242067725071812 0.539410637345013 3.037051737571408 200 186 164
0.239398638508952 0.549693764029223 3.010067089967808 200 186 164
0.236541293083314 0.559291016367927 2.981081685722609 196 182 160
0.233970913240286 0.569216006490414 2.955096499235934 197 183 161
0.231497254381663 0.579087002333045 2.930111171770806 207 193 171
0.228550592408807 0.587604159087009 2.900124424791912 209 195 173
0.226080467486115 0.596933884766993 2.875138389191441 210 196 174
0.223422285639839 0.605546806377890 2.848151556484494 208 194 172
0.220481412590602 0.613177311055897 2.818163649512464 208 194 172
0.217826966619454 0.621218032780566 2.791176068205298 222 208 185
0.215174338101069 0.628980386993017 2.764188122714240 227 213 190
0.212807732782380 0.637214817699290 2.740200583817797 227 214 188
0.211295057309262 0.647499537220417 2.725215094235176 224 213 187
0.208931380108915 0.655285486934782 2.701226968598020 226 214 191
0.205528341348965 0.659902257358667 2.666235470497171 221 209 186
0.200424847335061 0.659284360288247 2.613238390056534 225 213 193
0.197027126307272 0.663086647991196 2.578245826380597 234 223 207
0.192119228280269 0.662030845309547 2.527248032357701 235 224 208
0.174850917384697 0.635322201000843 2.346225821135507 76 68 60
0.173827703070287 0.644439987138879 2.336238453179194 44 40 33
0.174126743457640 0.657678439776705 2.340255491486779 42 42 34
0.173859324430023 0.669117017074510 2.338270597076876 37 39 30
0.173592040028537 0.680534974556595 2.336285675690390 30 31 25
0.173136294825076 0.691297987416753 2.332300038127181 66 63 62
0.172680818873877 0.702019760645471 2.328314346610804 56 50 52
0.172037151372964 0.712045349620822 2.322327884964536 41 36 36
0.171205494261534 0.721343824619227 2.314340612723501 79 76 73
0.170468538742549 0.730897602573576 2.307353604152780 90 86 77
0.169449666120854 0.739350399654645 2.297365366201617 185 182 169
0.168243275080098 0.747003913403747 2.285376223237640 85 82 69
0.167037691796127 0.754533708258530 2.273386918414157 27 23 16
0.165738887807148 0.761581382184450 2.260397053177928 74 69 69
0.164722943303795 0.769585698273611 2.250408228486052 77 74 71
0.163707671931095 0.777486915284171 2.240419268911253 95 91 84
0.162599146196855 0.784911166319799 2.229429755667854 193 181 169
0.161397467070673 0.791842986518705 2.217439668523419 215 202 176
0.160008875343020 0.797882734214904 2.203448554971541 207 194 166
0.158339746430495 0.802610147926694 2.186455935529230 207 194 168
0.156765554706144 0.807556779916918 2.170463532548209 206 193 167
0.155192439990838 0.812338453381383 2.154470913754512 206 192 169
0.153901578943569 0.818169558179828 2.141479456899797 203 189 167
0.152330517276757 0.822636779454564 2.125486426713187 204 190 168
0.150760532618989 0.826939042203541 2.109493180713900 206 192 170
0.149285249553666 0.831496607908461 2.094500198384928 209 197 175
0.147904567111190 0.836324941431115 2.080507499958710 210 198 176
0.146337712510961 0.840147793464604 2.064513626753833 213 201 181
0.145052505761180 0.845112866002812 2.051521036882568 218 207 189
0.143674684123981 0.849503028441418 2.037527765203929 226 215 197
0.142204348568960 0.853302815918632 2.022533791485476 235 224 206
0.141015290642530 0.858301528393795 2.010541175286243 246 235 219
0.139640262497542 0.862263829656212 1.996547343843475 252 241 225
0.138546242728883 0.867466295548019 1.985554923873096 255 248 231
0.137452963403942 0.872555352453367 1.974562355531502 255 247 230
0.136267136504647 0.877059189351252 1.962569091894240 247 236 220
0.134988863000597 0.880962341379884 1.949575112728873 238 227 211
0.133897905976411 0.885695706464063 1.938582079041196 241 228 214
0.132714502347468 0.889828386678989 1.926588329825413 220 207 192
0.131625059867252 0.894329778836319 1.915594992651160 189 176 159
0.130629477566164 0.899215347797842 1.905602087750875 189 176 159
0.129820740553482 0.905003299169931 1.897610222746326 215 202 185
0.128733384778291 0.909185084183602 1.886616467435013 235 222 205
0.127646769446819 0.913253460210813 1.875622563752485 232 219 202
0.126653879668344 0.917726632857938 1.865629119320510 231 220 202
0.125847565926014 0.923143427547068 1.857636768737439 230 219 203
0.124855955095780 0.927420711944854 1.847643068027911 227 216 200
0.124422322234283 0.934796920073015 1.843652999560696 225 214 198
0.123060453793569 0.936743634348811 1.829656531156791 226 215 199
0.391973942020579 -1.131456653734302 4.249764059273341 166 162 129
0.385744763272079 -1.094807016337693 4.190816382949994 150 107 100
0.382406950519492 -1.065617093090333 4.159856870677955 186 110 98
0.379895925083971 -1.038663088665338 4.136893839896468 170 110 103
0.380168903688207 -1.018274580280647 4.140920217219395 119 111 103
0.380029531986424 -0.996927916056602 4.140948144728515 176 144 136
0.380302106712268 -0.976477548224750 4.144974602981195 168 125 121
0.380162600384354 -0.955110264184985 4.145002557466901 139 100 107
0.380023094056440 -0.933742980145221 4.145030511952606 162 101 103
0.379883587728525 -0.912375696105456 4.145058466438312 154 139 134
0.380464045266046 -0.892432592041990 4.152084038561338 143 149 143
0.380735576639378 -0.871822420638309 4.156110705882548 89 90 78
0.381829116102137 -0.852716164598936 4.168134812363061 116 116 94
0.382099839718684 -0.831982274300936 4.172161641543778 133 123 76
0.382781163501554 -0.811938482237930 4.180187271233900 178 169 106
0.383461948779900 -0.791812210912044 4.188213008830361 99 111 103
0.383628945345822 -0.770740837529536 4.191240353696403 93 94 90
0.384308821897787 -0.750475382447540 4.199266273384809 186 143 136
0.384577829031169 -0.729478589499111 4.203293446516979 162 119 109
0.384846566912289 -0.708440556919242 4.207320673602317 128 78 89
0.385115035541148 -0.687361284707933 4.211347954640827 168 100 104
0.385793161953414 -0.666827772021579 4.219374225024831 152 144 136
0.386470749861157 -0.646211780072345 4.227400603315173 112 116 106
0.387045384818525 -0.625376868978993 4.234427342175480 93 92 76
0.387312406216479 -0.604075933748694 4.238454913212271 114 110 85
0.387988546893318 -0.583238278780471 4.246481581500897 164 152 74
0.388664149065633 -0.562318144549369 4.254508357695860 160 145 105
0.389339212733426 -0.541315531055386 4.262535241797163 133 78 78
0.390013737896696 -0.520230438298524 4.270562233804804 202 122 87
0.390176662022165 -0.498535315490488 4.273590394712527 196 169 154
0.390850278459053 -0.477311038977517 4.281617568812114 72 77 79
0.391114775617057 -0.455623482202471 4.285645645659866 97 100 93
0.392195895819261 -0.434615048162935 4.297672240730299 164 157 104
0.392459585220481 -0.412803772493569 4.301700479437558 205 191 107
0.393131182265409 -0.391270198744799 4.309728058185911 135 104 109
0.393700230238355 -0.369579565299070 4.316755916574475 166 85 88
0.393962876287062 -0.347608486057875 4.320784364350263 148 129 103
0.394633026101085 -0.325853249290115 4.328812233096901 124 125 87
0.394894999019139 -0.303779070970320 4.332840815755612 146 142 119
0.395156702684931 -0.281663653019085 4.336869452367491 89 95 91
0.395418137098462 -0.259506995436411 4.340898142932540 65 71 73
0.395679302259732 -0.237309098222296 4.344926887450759 81 80 77
0.396347298055664 -0.215223944403018 4.352955187822749 77 74 69
0.396506048771082 -0.192889607307665 4.355984185004592 77 74 69
0.397173135840632 -0.170665269732277 4.364012667468527 77 74 69
0.397432988397128 -0.148266329314894 4.368041675008444 77 74 69
0.398099133083763 -0.125897653029467 4.376070346308470 76 73 68
0.398358312509606 -0.103395613533483 4.380099488731310 75 72 67
0.399023514813326 -0.080882598538017 4.388128348867427 75 72 67
0.399282021108515 -0.058277459963434 4.392157626173190 74 71 66
0.399540258151443 -0.035631081757411 4.396186957432121 73 70 65
0.399696753879172 -0.012951362748750 4.399216406471757 74 71 66
0.399954486074109 0.009772339766223 4.403245838892880 73 70 65
0.400211949016785 0.032537281912635 4.407275325267172 73 70 65
0.400469142707200 0.055343463690487 4.411304865594634 69 66 61
0.400320717398128 0.078076810521697 4.411334607279064 83 80 75
0.399361861846868 0.100540768565301 4.403364589817921 83 80 75
0.398504814923871 0.122961075898406 4.396394441087785 54 53 50
0.396737110987457 0.144913362319696 4.380424347506205 48 47 42
0.393452441899954 0.165963613311618 4.349454186227428 76 74 66
0.388146476434619 0.185608388876471 4.298483669415974 116 110 100
0.380922369481021 0.203597840146556 4.228512396037003 138 131 117
0.374815094693849 0.221576234408778 4.169540292416377 138 132 114
0.368711791377533 0.238946344107264 4.110567392986507 139 131 114
0.362713494060084 0.255783082471902 4.052593721593761 145 137 120
0.356214096543027 0.271621505261561 3.989619114927505 152 144 127
0.350425710253715 0.287406965820295 3.933643919841441 157 149 132
0.344540159937647 0.302524693447191 3.876667925332206 160 152 133
0.338658446466304 0.317054756326069 3.819691161990313 167 157 136
0.333284901066429 0.331500594454632 3.767713917651242 171 161 140
0.328217353712401 0.345727846234887 3.718736164854699 172 162 141
0.323153104698575 0.359449912530005 3.669757751131836 174 164 143
0.318293684576451 0.372899099062645 3.622778832081719 175 165 144
0.313638891406835 0.386106335556388 3.577799448169229 177 167 146
0.308987127325160 0.398849626196433 3.532819457283587 183 173 152
0.304338392331424 0.411128970982779 3.487838859424794 187 177 156
0.299893947724870 0.423217915269528 3.444857864145086 189 179 158
0.295653591566299 0.435147388780259 3.403876511909342 193 183 162
0.291617121916518 0.446948321238552 3.364894843182437 195 185 164
0.287583277476285 0.458347167290307 3.325912648412134 195 185 164
0.283552058245600 0.469343926935523 3.286929927598433 193 181 161
0.279322539490549 0.479613505280800 3.245946403747636 192 180 160
0.275497495412874 0.490131187006340 3.208962907840838 195 183 161
0.271674941918617 0.500267402141061 3.171978912867226 196 184 162
0.268055601802495 0.510378175301944 3.136994736285377 196 182 160
0.264639273125312 0.520494436212569 3.104010418560167 198 184 162
0.261124871694992 0.530082147947464 3.070025483503732 198 184 162
0.257913540192176 0.539899754325961 3.039040626730540 199 185 163
0.254704295394386 0.549397753560800 3.008055351820287 199 185 163
0.251697523531012 0.558983719808259 2.979070043673013 197 183 161
0.248993182121021 0.568897524823990 2.953084941947756 199 185 163
0.245990213445839 0.577900981277362 2.924098871711968 206 192 170
0.243289473284843 0.587263206222584 2.898113048363076 209 195 173
0.240290307797853 0.595684152881868 2.869126216038776 211 197 175
0.237893243381950 0.605183483299953 2.846140349578495 207 193 171
0.234997771289052 0.613272101828659 2.818153008313016 205 191 169
0.232404056518885 0.621791658204236 2.793166008352478 220 206 183
0.230011872300219 0.630543520302473 2.770179163991009 224 213 187
0.227321565664351 0.638307709529402 2.744191249956817 226 215 189
0.224932578816289 0.646569851004292 2.721203764901465 226 213 187
0.222245671490221 0.653813389884293 2.695215169708514 226 212 189
0.218861989649727 0.658929345482837 2.662224310161559 220 208 186
0.215879551459473 0.664788280038922 2.633234125996632 221 209 187
0.213397674964305 0.671728009432866 2.609244985011552 219 207 185
0.210219596115766 0.676452521328543 2.578253465021984 216 204 182
0.207242913192598 0.681429958762601 2.549262127608070 209 197 177
0.191018595514187 0.647349376640422 2.387229554666807 113 102 86
0.186855245502364 0.647484315559361 2.346232771824719 31 24 12
0.186378140027488 0.658360602759994 2.342247297748066 26 20 10
0.186100343772958 0.669809422642667 2.340262424384126 39 35 26
0.186021654799577 0.681861704930959 2.340278192197776 43 41 33
0.185744060484242 0.693279595090052 2.338293278368958 60 55 53
0.185068924737262 0.703387461359307 2.332306947302039 59 54 54
0.184195422152851 0.712778456236483 2.324319826686314 62 57 57
0.183521161475720 0.722752293703559 2.318333320271595 86 80 70
0.182747986632135 0.732326455843155 2.311346365129305 194 186 170
0.181478861038440 0.740113594456485 2.299357442859148 162 150 138
0.180210543201529 0.747777014175495 2.287368358729484 33 26 18
0.179141467271899 0.756023276484405 2.277379888800826 41 37 28
0.177973881054206 0.763808004018675 2.266390889214842 71 65 55
0.176707885518050 0.771115731916517 2.254401339739095 91 84 70
0.175442697738677 0.778299740920039 2.242411628403841 168 158 137
0.174079235266971 0.784986130471412 2.229421340202239 217 204 178
0.172617599072530 0.791159435708847 2.215430454901851 211 198 170
0.171156905261004 0.797188402236242 2.201439380765371 207 194 168
0.169400209393834 0.801904933794740 2.184446812074961 214 200 177
0.167743605671761 0.806840717293168 2.168454456067010 212 200 178
0.166088078958734 0.811611542265837 2.152461884246381 210 198 176
0.164730270784516 0.817431899556974 2.139470463028229 209 197 175
0.163076797119982 0.821888272339914 2.123477479814687 206 194 172
0.161424400464493 0.826179686597095 2.107484280788468 211 199 179
0.160069419439020 0.831567027758113 2.094492293062043 218 206 186
0.158419075832024 0.835543989825565 2.078498682642910 226 214 194
0.156967233688590 0.840217203469375 2.064505834795998 237 226 208
0.155417655357345 0.844310318398158 2.049512302176400 244 233 215
0.153967731636272 0.848689699667959 2.035519069913159 248 237 221
0.152617361555775 0.853370812140571 2.022526158238713 251 240 224
0.151169288943999 0.857466670944224 2.008532555047434 253 245 229
0.149820702659733 0.861874570858546 1.995539285933244 254 246 230
0.148571501733379 0.866609976745328 1.983546371128578 254 248 230
0.147421585195337 0.871688353466359 1.972553830865877 255 250 233
0.146173966126018 0.876181476518432 1.960560599086344 251 245 228
0.144927154813483 0.880550880676186 1.948567205447303 248 240 224
0.143779526919664 0.885278720529978 1.937574206582665 253 242 226
0.142534297464164 0.889405841853023 1.925580495968757 226 215 199
0.141486492463180 0.894394173278185 1.915587763739745 196 183 168
0.140341085900517 0.898781786172599 1.904594319761462 199 186 171
0.139491142888974 0.904564313298790 1.896602478243447 225 212 197
0.138445323623418 0.909248502442084 1.886609348109813 242 231 215
0.137302003765780 0.913316508192839 1.875615485994471 238 227 211
0.136061284285658 0.916752865689266 1.863620871664981 238 227 211
0.135311904610671 0.922682475400367 1.856629148411377 236 225 210
0.134170705114591 0.926425719053533 1.845634861414829 233 222 207
0.133716519738463 0.933791482627851 1.841644794574661 230 219 204
0.132282549213876 0.935727415734843 1.827648365586155 229 218 203
0.413449134936173 -1.130293711735733 4.245749645455744 143 139 106
0.407024258201773 -1.093916495389311 4.187801760293405 153 110 103
0.403851571324020 -1.065477061266934 4.159841150724223 195 119 107
0.401221981879243 -1.038523831056347 4.136878206855942 166 106 99
0.401515580311177 -1.018135188025671 4.140904569063529 123 115 107
0.401808909490848 -0.997705305363556 4.144930985224284 166 134 126
0.401669403162934 -0.976338021323791 4.144958939709990 158 115 111
0.401529896835020 -0.954970737284026 4.144986894195695 138 99 106
0.401390390507105 -0.933603453244262 4.145014848681400 167 106 108
0.401250884179191 -0.912236169204497 4.145042803167105 166 151 146
0.401867426415181 -0.892292829510559 4.152068348838288 148 154 148
0.402591470740881 -0.872475586128504 4.160093651555299 71 72 60
0.403314976562058 -0.852575863483569 4.168119062178650 115 115 93
0.404037943878713 -0.832593661575754 4.176144580708338 144 134 87
0.404760372690845 -0.812528980405060 4.184170207144365 176 167 104
0.405050908378305 -0.791671236566756 4.188197183069248 103 115 107
0.405664589809018 -0.771289725788770 4.195223301992851 104 105 101
0.405954486022358 -0.750334037825797 4.199250406056511 166 123 116
0.406244112983436 -0.729337110231383 4.203277564073342 154 111 101
0.406533470692253 -0.708298943005530 4.207304776043340 142 92 103
