ply
format ascii 1.0
element vertex 740
property double x
property double y
property double z
property uchar red
property uchar green
property uchar blue
end_header
0.505181100447667 0.080221550082912 2.256000000000000 30 35 35
0.504733244862163 0.091808924784947 2.254000000000000 26 31 29
0.504285389276660 0.103375610058237 2.252000000000000 26 31 31
0.504285389276660 0.115023758441364 2.252000000000000 20 25 25
0.503837533691157 0.126559409571538 2.250000000000000 24 29 29
0.502941822520150 0.137951529305643 2.246000000000000 35 39 44
0.502046111349144 0.149302270182258 2.242000000000000 52 62 68
0.501598255763641 0.160755163597455 2.240000000000000 40 50 56
0.501598255763641 0.172341243694348 2.240000000000000 51 61 67
0.501150400178137 0.183763102966427 2.238000000000000 53 63 69
0.501150400178137 0.195338838348948 2.238000000000000 41 51 57
0.500702544592634 0.206729663477911 2.236000000000000 57 67 73
0.500702544592634 0.218295054146059 2.236000000000000 60 70 76
0.501150400178137 0.230066044496510 2.238000000000000 68 78 84
0.501150400178137 0.241641779879031 2.238000000000000 54 64 70
0.502046111349144 0.253670093483646 2.242000000000000 40 50 56
0.502046111349144 0.265266518294911 2.242000000000000 52 62 68
0.502493966934647 0.277109921645968 2.244000000000000 51 61 67
0.502941822520150 0.288974014425769 2.246000000000000 43 52 61
0.503389678105654 0.300858796634315 2.248000000000000 46 55 64
0.503389678105654 0.312486255588697 2.248000000000000 37 46 55
0.503389678105654 0.324113714543079 2.248000000000000 38 47 58
0.503389678105654 0.335741173497461 2.248000000000000 35 44 53
0.503389678105654 0.347368632451843 2.248000000000000 37 46 55
0.503389678105654 0.358996091406225 2.248000000000000 40 49 60
0.503389678105654 0.370623550360607 2.248000000000000 46 55 64
0.503389678105654 0.382251009314989 2.248000000000000 46 55 64
0.503389678105654 0.393878468269371 2.248000000000000 32 41 50
0.503837533691157 0.405866697621638 2.250000000000000 29 38 47
0.503389678105654 0.417133386178135 2.248000000000000 37 46 57
0.503389678105654 0.428760845132516 2.248000000000000 40 50 61
0.503837533691157 0.440780108627901 2.250000000000000 34 44 55
0.503837533691157 0.452417912296655 2.250000000000000 32 42 53
0.503837533691157 0.464055715965409 2.250000000000000 48 57 69
0.504733244862163 0.476539197002402 2.254000000000000 50 60 71
0.504733244862163 0.488197690099901 2.254000000000000 40 50 61
0.504733244862163 0.499856183197399 2.254000000000000 42 52 63
0.504285389276660 0.511060803467662 2.252000000000000 50 60 71
0.504285389276660 0.522708951850788 2.252000000000000 59 69 80
0.505181100447667 0.535306224745876 2.256000000000000 73 83 94
0.506524667204176 0.548429783468804 2.262000000000000 61 71 75
0.508540017338941 0.562358288005054 2.271000000000000 77 85 89
0.514809995535987 0.581183060762075 2.299000000000000 80 86 88
0.684995118027222 0.820776414315918 3.059000000000000 109 115 111
0.688354034918496 0.840700969372633 3.074000000000000 117 117 107
0.689697601675006 0.858272755275619 3.080000000000000 125 123 105
0.680068706586686 0.861998824674242 3.037000000000000 124 122 103
0.668648389156353 0.862968033756050 2.986000000000000 124 120 95
0.653421299249243 0.858408652435238 2.918000000000000 119 115 86
0.643344548575420 0.860030867064256 2.873000000000000 120 116 87
0.636402787000119 0.865450874346259 2.842000000000000 120 116 85
0.628117458668309 0.868692030711148 2.805000000000000 116 112 81
0.618936419165492 0.870290966701138 2.764000000000000 116 112 81
0.611098946419185 0.873386002459674 2.729000000000000 117 113 82
0.604828968222140 0.878395451616261 2.701000000000000 121 115 85
0.596543639890330 0.880141796754364 2.664000000000000 123 117 85
0.588258311558520 0.881505387460694 2.627000000000000 126 117 88
0.579972983226710 0.882486223735252 2.590000000000000 124 118 88
0.571239799309396 0.882392504320241 2.551000000000000 65 60 42
0.562954470977586 0.882597487016882 2.514000000000000 22 20 10
0.557132348366044 0.886338414057729 2.488000000000000 6 5 0
0.550190586790743 0.888003290022614 2.457000000000000 142 138 112
0.542353114044437 0.887881119611388 2.422000000000000 128 124 95
0.536307063640143 0.890370983515767 2.395000000000000 95 90 65
0.530484941028600 0.892958474904112 2.369000000000000 128 119 88
0.524886746209810 0.895659110847979 2.344000000000000 132 121 91
0.518616768012764 0.896939290473379 2.316000000000000 138 125 95
0.513018573193974 0.899107173627077 2.291000000000000 139 128 98
0.507420378375183 0.901016438921470 2.266000000000000 148 136 103
0.501150400178137 0.901458696682719 2.238000000000000 149 137 103
0.495552205359347 0.902835209186942 2.213000000000000 153 141 108
0.490177938333308 0.904366245104177 2.189000000000000 153 141 108
0.484579743514517 0.905230694246975 2.164000000000000 155 143 110
0.479429404281230 0.906683497503847 2.141000000000000 163 149 116
0.474502992840694 0.908327030674035 2.119000000000000 168 154 119
0.469800509192910 0.910176810829096 2.098000000000000 168 154 119
0.464874097752374 0.911370348924092 2.076000000000000 168 154 119
0.460171614104590 0.912780478718333 2.055000000000000 171 160 121
0.455693058249558 0.914422717283379 2.035000000000000 175 164 125
0.451886285772780 0.917221621950401 2.018000000000000 176 163 125
0.447855585503251 0.919384973986102 2.000000000000000 179 166 126
0.444048813026473 0.921826986007282 1.983000000000000 184 171 131
0.440465968342447 0.924563175085500 1.967000000000000 188 175 134
0.436659195865669 0.926658639175210 1.950000000000000 190 177 136
0.433300278974395 0.929539006952068 1.935000000000000 187 174 133
0.429717434290369 0.931778649740419 1.919000000000000 183 170 129
0.426134589606343 0.933852777098814 1.903000000000000 185 172 132
0.422999600507820 0.936753187001845 1.889000000000000 177 166 127
0.419864611409297 0.939508770903665 1.875000000000000 169 157 121
0.416505694518023 0.941613285102606 1.860000000000000 161 151 117
0.412698922041245 0.942539796468255 1.843000000000000 158 146 112
0.408892149564468 0.943290447689576 1.826000000000000 159 147 113
0.405981088258697 0.945952281859475 1.813000000000000 158 148 115
0.403070026952926 0.948479634742535 1.800000000000000 126 120 92
0.402174315781919 0.955661455727144 1.796000000000000 93 88 70
0.397471832134135 0.953668174492924 1.775000000000000 90 87 76
0.902883690904627 -1.775981610763323 3.941000000000000 186 177 150
0.916400599750953 -1.781880082306878 4.000000000000000 186 175 149
0.917317000350704 -1.762951844215989 4.004000000000000 185 174 148
0.924419104998774 -1.755730610535132 4.035000000000000 189 178 152
0.933354010846346 -1.751628314300883 4.074000000000000 188 177 151
0.941372516094167 -1.745423451838788 4.109000000000000 189 178 152
0.952140223141240 -1.743891823189419 4.156000000000000 190 179 153
0.963824330788065 -1.743531736474395 4.207000000000000 190 179 153
0.974592037835139 -1.741007015245293 4.254000000000000 191 180 154
0.984443344282461 -1.736379727788344 4.297000000000000 190 179 153
0.995211051329535 -1.732903292836997 4.344000000000000 186 175 149
1.006895158976360 -1.730515642105017 4.395000000000000 185 174 148
1.015830064823932 -1.722937521841700 4.434000000000000 189 178 152
1.028201472920570 -1.720706983733017 4.488000000000000 192 181 155
1.040801981167145 -1.718296060425391 4.543000000000000 190 179 153
1.054318890013472 -1.716808405907177 4.602000000000000 180 169 143
1.065773897510359 -1.711399451275936 4.652000000000000 194 183 157
1.076541604557432 -1.704385124009287 4.699000000000000 193 184 157
1.087309311604506 -1.696884595167144 4.746000000000000 194 185 158
1.095327816852327 -1.684669453654786 4.781000000000000 197 188 161
1.103346322100148 -1.672092247139400 4.816000000000000 199 190 163
1.109761126298404 -1.656758815483005 4.844000000000000 196 189 164
1.128547338593299 -1.659325659886278 4.926000000000000 198 191 167
0.524410243207483 -0.747371788322821 2.289000000000000 74 74 66
0.527617645306611 -0.740030930997349 2.303000000000000 83 83 75
0.526701244706860 -0.726854348034035 2.299000000000000 83 83 75
0.526701244706860 -0.714963098863161 2.299000000000000 72 73 69
0.523035642307856 -0.698178787667461 2.283000000000000 62 63 59
0.521202841108355 -0.683965144056641 2.275000000000000 64 63 60
0.521661041408230 -0.672788974782592 2.277000000000000 64 63 60
0.521661041408230 -0.661011517469813 2.277000000000000 65 64 61
0.523035642307856 -0.650944821843877 2.283000000000000 69 66 63
0.523493842607732 -0.639696239569224 2.285000000000000 65 62 61
0.524410243207483 -0.628976532332695 2.289000000000000 63 62 59
0.525784844107109 -0.618754665991176 2.295000000000000 79 72 66
0.526701244706860 -0.607941856325298 2.299000000000000 143 137 127
0.528075845606487 -0.597606198125684 2.305000000000000 109 97 85
0.530137746955926 -0.587970750053908 2.314000000000000 87 68 53
0.532428748455304 -0.578491120000287 2.324000000000000 156 130 105
0.534261549654806 -0.568420546622307 2.332000000000000 196 171 142
0.535177950254557 -0.557312912596820 2.336000000000000 193 170 141
0.537010751454059 -0.547097513217629 2.344000000000000 166 140 111
0.537927152053809 -0.535886432048420 2.348000000000000 178 146 112
0.538843552653560 -0.524633972021723 2.352000000000000 179 147 112
0.538385352353685 -0.512032815311209 2.350000000000000 183 152 112
0.537468951753934 -0.499026920135037 2.346000000000000 191 161 126
0.535177950254557 -0.484817154276261 2.336000000000000 142 127 110
0.531970548155428 -0.469901358629889 2.322000000000000 87 84 79
0.530595947255802 -0.456707963989875 2.316000000000000 59 62 59
0.527617645306611 -0.442232466006894 2.303000000000000 39 44 44
0.526701244706860 -0.429573118762192 2.299000000000000 42 47 47
0.524868443507358 -0.416228431158638 2.291000000000000 46 48 47
0.523952042907607 -0.403672531057658 2.287000000000000 49 52 49
0.523035642307856 -0.391158009814167 2.283000000000000 52 54 53
0.522119241708106 -0.378684867428164 2.279000000000000 52 54 53
0.521202841108355 -0.366253103899651 2.275000000000000 49 54 52
0.520744640808479 -0.354174355264935 2.273000000000000 47 52 50
0.520286440508604 -0.342116296058964 2.271000000000000 44 49 49
0.520057340358666 -0.330224399585519 2.270000000000000 41 46 46
0.520057340358666 -0.318483148773043 2.270000000000000 40 45 45
0.519599140058790 -0.306471640781746 2.268000000000000 40 45 45
0.519599140058790 -0.294740734683642 2.268000000000000 39 44 44
0.519140939758915 -0.282760260835462 2.266000000000000 38 43 43
0.519140939758915 -0.271039699451731 2.266000000000000 38 43 43
0.519140939758915 -0.259319138067999 2.266000000000000 37 42 42
0.519140939758915 -0.247598576684266 2.266000000000000 36 41 41
0.518682739459039 -0.235669826407948 2.264000000000000 34 39 39
0.518682739459039 -0.223959609738588 2.264000000000000 33 38 38
0.519140939758915 -0.212436892533070 2.266000000000000 34 39 39
0.518682739459039 -0.200539176399869 2.264000000000000 35 40 40
0.518682739459039 -0.188828959730509 2.264000000000000 34 39 39
0.518224539159164 -0.176962277740424 2.262000000000000 33 38 38
0.518682739459039 -0.165408526391789 2.264000000000000 33 38 38
0.518224539159164 -0.153562533830449 2.262000000000000 32 37 37
0.518224539159164 -0.141862661875461 2.262000000000000 31 36 36
0.518224539159164 -0.130162789920474 2.262000000000000 31 36 36
0.518224539159164 -0.118462917965486 2.262000000000000 31 36 36
0.518224539159164 -0.106763046010498 2.262000000000000 30 35 35
0.518224539159164 -0.095063174055511 2.262000000000000 29 34 34
0.518224539159164 -0.083363302100523 2.262000000000000 28 33 33
0.517766338859288 -0.071600067254160 2.260000000000000 30 35 35
0.517766338859288 -0.059910540013545 2.260000000000000 31 36 36
0.517308138559413 -0.048178339310299 2.258000000000000 30 35 35
0.517308138559413 -0.036499156784056 2.258000000000000 31 36 36
0.517308138559413 -0.024819974257813 2.258000000000000 33 38 38
0.517308138559413 -0.013140791731570 2.258000000000000 26 31 31
0.517308138559413 -0.001461609205326 2.258000000000000 23 28 28
0.516849938259538 0.010208523211686 2.256000000000000 26 31 31
0.516849938259538 0.021877361023557 2.256000000000000 27 32 32
0.516849938259538 0.033546198835428 2.256000000000000 27 32 32
0.516849938259538 0.045215036647299 2.256000000000000 29 34 34
0.516391737959662 0.056833445492451 2.254000000000000 24 29 29
0.516391737959662 0.068491938589949 2.254000000000000 25 30 30
0.516391737959662 0.080150431687448 2.254000000000000 29 34 34
0.515933537659787 0.091727461675111 2.252000000000000 23 28 28
0.515933537659787 0.103375610058237 2.252000000000000 27 32 30
0.515475337359911 0.114921605902784 2.250000000000000 21 26 26
0.515017137060036 0.126446912318585 2.248000000000000 25 30 30
0.514100736460285 0.137828687338318 2.244000000000000 43 47 53
0.513642536160409 0.149302270182258 2.242000000000000 41 50 59
0.513184335860534 0.160755163597455 2.240000000000000 34 43 52
0.513184335860534 0.172341243694348 2.240000000000000 58 67 76
0.513184335860534 0.183927323791241 2.240000000000000 64 73 82
0.513184335860534 0.195513403888134 2.240000000000000 41 50 59
0.513184335860534 0.207099483985027 2.240000000000000 60 69 78
0.513184335860534 0.218685564081920 2.240000000000000 57 66 75
0.513642536160409 0.230477243861115 2.242000000000000 48 57 66
0.514100736460285 0.242289613069055 2.244000000000000 45 54 63
0.515017137060036 0.254348960816787 2.248000000000000 38 47 56
0.515933537659787 0.266449687422007 2.252000000000000 43 52 61
0.515933537659787 0.278097835805134 2.252000000000000 38 47 56
0.516849938259538 0.290260630696587 2.256000000000000 37 46 55
0.516849938259538 0.301929468508458 2.256000000000000 44 53 62
0.517308138559413 0.313876319003237 2.258000000000000 38 47 56
0.517308138559413 0.325555501529480 2.258000000000000 39 48 59
0.517308138559413 0.337234684055723 2.258000000000000 42 51 60
0.517766338859288 0.349222913407991 2.260000000000000 42 51 60
0.517766338859288 0.360912440648607 2.260000000000000 41 50 61
0.517308138559413 0.372272231634453 2.258000000000000 41 50 59
0.517766338859288 0.384291495129837 2.260000000000000 42 51 60
0.517766338859288 0.395981022370453 2.260000000000000 43 52 61
0.518224539159164 0.408031320008954 2.262000000000000 44 53 62
0.518682739459039 0.420102307076199 2.264000000000000 41 50 61
0.518682739459039 0.431812523745559 2.264000000000000 39 49 60
0.519140939758915 0.443914544955922 2.266000000000000 29 39 48
0.519599140058790 0.456037255595028 2.268000000000000 34 44 53
0.520057340358666 0.468180655662880 2.270000000000000 42 52 64
0.520286440508604 0.480133325817416 2.271000000000000 56 69 79
0.520744640808479 0.492312932385570 2.273000000000000 53 63 74
0.521202841108355 0.504513228382468 2.275000000000000 44 53 64
0.521202841108355 0.516280340980875 2.275000000000000 59 69 78
0.522119241708106 0.528975888662499 2.279000000000000 67 78 84
0.525784844107109 0.544560188737493 2.295000000000000 81 87 87
0.531512347855553 0.562492085609030 2.320000000000000 100 99 83
0.570459373344968 0.616588347482424 2.490000000000000 113 109 86
0.703795660608732 0.776596069013091 3.072000000000000 123 119 90
0.701504659109355 0.789905844721483 3.062000000000000 122 118 89
0.703795660608732 0.808375031564568 3.072000000000000 125 121 92
0.704253860908607 0.824801143382521 3.074000000000000 129 123 93
0.703337460308856 0.839607018859461 3.070000000000000 128 122 92
0.702421059709106 0.854371515478911 3.066000000000000 126 120 90
0.699442757759915 0.866540142156886 3.053000000000000 127 121 91
0.688675050712841 0.868748127753077 3.006000000000000 125 121 90
0.674699941566639 0.866351432975249 2.945000000000000 120 116 85
0.662328533470001 0.865419156520280 2.891000000000000 122 118 87
0.653393627622430 0.868496092060355 2.852000000000000 123 119 88
0.644687821924796 0.871479277868510 2.814000000000000 120 116 87
0.635752916077224 0.873754498044738 2.775000000000000 120 116 87
0.627276210529527 0.876266352046386 2.738000000000000 119 115 86
0.618341304681956 0.877745029215953 2.699000000000000 122 116 86
0.608489998234633 0.877498728295642 2.656000000000000 122 116 86
0.599096892087186 0.877478716486378 2.615000000000000 125 119 89
0.590161986239614 0.877716027931278 2.576000000000000 106 100 80
0.582601681291668 0.879625299289052 2.543000000000000 30 32 23
0.575499576643599 0.881895341044712 2.512000000000000 21 22 16
0.569542972745217 0.885625923371188 2.486000000000000 4 5 3
0.562440868097148 0.887280454621701 2.455000000000000 123 119 86
0.554880563149202 0.887881119611388 2.422000000000000 187 178 137
0.548923959250821 0.890742745930597 2.396000000000000 91 86 63
0.542738255202502 0.892958474904112 2.369000000000000 126 120 90
0.536552551154183 0.894894896589577 2.342000000000000 127 118 89
0.530595947255802 0.896939290473379 2.316000000000000 136 125 95
0.524868443507358 0.899107173627077 2.291000000000000 141 131 98
0.519140939758915 0.901016438921470 2.266000000000000 145 135 102
0.512726135560658 0.901458696682719 2.238000000000000 148 136 103
0.507456832112090 0.903651147017206 2.215000000000000 151 139 106
0.501500228213709 0.904366245104177 2.189000000000000 154 142 108
0.495772724465266 0.905230694246975 2.164000000000000 156 144 110
0.490503421016698 0.906683497503847 2.141000000000000 163 149 114
0.485005017418192 0.907469713986282 2.117000000000000 165 151 116
0.480193914269499 0.909309149426971 2.096000000000000 166 154 118
0.475611911270745 0.911370348924092 2.076000000000000 167 155 119
0.470800808122052 0.912780478718333 2.055000000000000 170 158 122
0.466218805123297 0.914422717283379 2.035000000000000 172 160 124
0.461865902274480 0.916312581690787 2.016000000000000 172 161 122
0.457971199725539 0.918925281499109 1.999000000000000 172 161 122
0.454076497176597 0.921362121163103 1.982000000000000 175 164 125
0.450639994927531 0.924563175085500 1.967000000000000 179 166 128
0.446745292378590 0.926658639175210 1.950000000000000 185 174 135
0.443308790129524 0.929539006952068 1.935000000000000 184 173 132
0.439643187730520 0.931778649740419 1.919000000000000 179 166 125
0.435977585331516 0.933852777098814 1.903000000000000 180 169 128
0.432541083082450 0.936257288014549 1.888000000000000 177 166 127
0.429333680983322 0.939007699559183 1.874000000000000 172 161 122
0.425668078584318 0.940600797699270 1.858000000000000 167 157 121
0.422002476185314 0.942028380409401 1.842000000000000 165 156 125
0.417878673486435 0.942257270857496 1.824000000000000 152 145 121
0.415129471687182 0.945430521086249 1.812000000000000 113 110 95
0.411922069588053 0.947425768481710 1.798000000000000 86 84 74
0.410089268388552 0.952468822801553 1.790000000000000 89 87 77
0.406194565839610 0.952593618803354 1.773000000000000 88 88 78
0.924205040603593 -1.777784180274374 3.945000000000000 186 177 150
0.938027118523900 -1.783661962389185 4.004000000000000 186 175 149
0.938964208552396 -1.764713034869551 4.008000000000000 186 175 149
0.946226656273235 -1.757471111759950 4.039000000000000 189 178 152
0.955363284051065 -1.753348126096956 4.078000000000000 189 178 152
0.963562821800400 -1.747122574206117 4.113000000000000 189 178 152
0.975510719663717 -1.747248689066588 4.164000000000000 190 179 153
0.986521527498538 -1.745189479984236 4.211000000000000 190 179 153
0.998469425361854 -1.744281123407484 4.262000000000000 191 180 154
1.008543143168180 -1.739612457093047 4.305000000000000 191 180 154
1.019553951003001 -1.736094643284211 4.352000000000000 188 177 151
1.031267576359193 -1.733271867246027 4.402000000000000 185 174 148
1.041341294165519 -1.727211836848525 4.445000000000000 185 174 148
1.053289192028835 -1.723774197607764 4.496000000000000 189 178 152
1.066174179920647 -1.721321895442649 4.551000000000000 180 169 143
1.079761985333830 -1.719419805046975 4.609000000000000 191 180 154
1.094521153282633 -1.718757144531636 4.672000000000000 195 184 158
1.104594871088959 -1.710188520898870 4.715000000000000 192 183 156
1.116542768952275 -1.704035394135400 4.766000000000000 194 185 158
1.124742306701610 -1.691716805479320 4.801000000000000 198 189 162
1.132941844450945 -1.679036151820211 4.836000000000000 199 190 163
1.139267202143289 -1.663257250143239 4.863000000000000 196 189 164
1.158477547727444 -1.665725819759976 4.945000000000000 199 192 168
0.540935218948973 -0.741958931686009 2.309000000000000 72 72 64
0.539529583906229 -0.728118992397731 2.303000000000000 79 79 71
0.540466673934725 -0.717451008733064 2.307000000000000 73 74 70
0.535781223792248 -0.699402053173668 2.287000000000000 63 64 60
0.534375588749505 -0.685769008172834 2.281000000000000 58 57 54
0.533438498721009 -0.672788974782592 2.277000000000000 57 56 53
0.533907043735257 -0.661592116079800 2.279000000000000 55 54 51
0.534844133763752 -0.650944821843877 2.283000000000000 56 53 50
0.536249768806496 -0.640816057931708 2.289000000000000 53 50 49
0.537186858834991 -0.630075661266435 2.293000000000000 44 43 40
0.538123948863486 -0.619293885743674 2.297000000000000 107 100 94
0.539061038891982 -0.608470731363423 2.301000000000000 127 121 111
0.539998128920477 -0.597606198125684 2.305000000000000 90 78 66
0.541638036470344 -0.587462564444527 2.312000000000000 131 112 97
0.543512216527335 -0.577495438210269 2.320000000000000 178 152 127
0.545854941598574 -0.567933050441671 2.330000000000000 197 172 143
0.547260576641317 -0.557312912596820 2.336000000000000 168 145 116
0.549134756698307 -0.547097513217629 2.344000000000000 169 143 114
0.551008936755298 -0.536799356123460 2.352000000000000 192 160 126
0.551477481769546 -0.525080089344870 2.354000000000000 190 158 123
0.550071846726803 -0.511597042702434 2.348000000000000 199 168 128
0.548197666669812 -0.497750636451827 2.340000000000000 190 160 125
0.545854941598574 -0.483571904736168 2.330000000000000 111 96 79
0.542575126498840 -0.468687143232913 2.316000000000000 79 76 71
0.541403763963220 -0.455721979611659 2.311000000000000 44 47 44
0.539061038891982 -0.441848416969980 2.301000000000000 43 48 48
0.537186858834991 -0.428452005794565 2.293000000000000 45 50 50
0.535781223792248 -0.415501711942299 2.287000000000000 50 52 51
0.534844133763752 -0.402966501270063 2.283000000000000 51 54 51
0.533907043735257 -0.390472669455316 2.279000000000000 52 54 53
0.532969953706762 -0.378020216498058 2.275000000000000 51 53 52
0.532032863678266 -0.365609142398289 2.271000000000000 49 54 52
0.532032863678266 -0.353862719228626 2.271000000000000 47 52 50
0.531798591171142 -0.341965650397996 2.270000000000000 43 48 48
0.531330046156895 -0.329933452977955 2.268000000000000 41 46 46
0.530861501142647 -0.317921944986658 2.266000000000000 40 45 45
0.530861501142647 -0.306201383602926 2.266000000000000 39 44 44
0.530861501142647 -0.294480822219195 2.266000000000000 38 43 43
0.530392956128399 -0.282510693085387 2.264000000000000 37 42 42
0.530392956128399 -0.270800476416027 2.264000000000000 38 43 43
0.530392956128399 -0.259090259746667 2.264000000000000 38 43 43
0.530392956128399 -0.247380043077308 2.264000000000000 37 42 42
0.530392956128399 -0.235669826407948 2.264000000000000 36 41 41
0.530392956128399 -0.223959609738588 2.264000000000000 34 39 39
0.530861501142647 -0.212436892533070 2.266000000000000 33 38 38
0.530392956128399 -0.200539176399869 2.264000000000000 33 38 38
0.530392956128399 -0.188828959730509 2.264000000000000 34 39 39
0.530392956128399 -0.177118743061149 2.264000000000000 33 38 38
0.530392956128399 -0.165408526391789 2.264000000000000 33 38 38
0.530392956128399 -0.153698309722430 2.264000000000000 32 37 37
0.530392956128399 -0.141988093053070 2.264000000000000 31 36 36
0.530392956128399 -0.130277876383710 2.264000000000000 31 36 36
0.529924411114152 -0.118462917965486 2.262000000000000 31 36 36
0.529924411114152 -0.106763046010498 2.262000000000000 30 35 35
0.529924411114152 -0.095063174055511 2.262000000000000 28 33 33
0.529924411114152 -0.083363302100523 2.262000000000000 26 31 31
0.529455866099904 -0.071600067254160 2.260000000000000 28 33 33
0.529455866099904 -0.059910540013545 2.260000000000000 29 34 34
0.529455866099904 -0.048221012772930 2.260000000000000 29 34 34
0.529455866099904 -0.036531485532314 2.260000000000000 30 35 35
0.529455866099904 -0.024841958291699 2.260000000000000 32 37 37
0.528987321085656 -0.013140791731570 2.258000000000000 27 32 32
0.528987321085656 -0.001461609205326 2.258000000000000 23 28 28
0.528987321085656 0.010217573320917 2.258000000000000 25 30 30
0.528518776071408 0.021877361023557 2.256000000000000 26 31 31
0.528518776071408 0.033546198835428 2.256000000000000 27 32 32
0.528050231057161 0.045174952394952 2.254000000000000 30 35 35
0.528050231057161 0.056833445492451 2.254000000000000 25 30 30
0.528050231057161 0.068491938589949 2.254000000000000 24 29 29
0.527581686042913 0.080079313291985 2.252000000000000 28 33 33
0.527113141028665 0.091645998565275 2.250000000000000 21 26 26
0.527113141028665 0.103283802234029 2.250000000000000 28 33 31
0.527113141028665 0.114921605902784 2.250000000000000 23 28 28
0.526644596014418 0.126446912318585 2.248000000000000 25 30 30
0.525707505985922 0.137828687338318 2.244000000000000 36 40 46
0.525707505985922 0.149435456863955 2.244000000000000 40 49 58
0.525238960971675 0.160898694993524 2.242000000000000 45 54 63
0.525238960971675 0.172495119804789 2.242000000000000 51 60 69
0.525238960971675 0.184091544616054 2.242000000000000 40 49 58
0.525238960971675 0.195687969427320 2.242000000000000 48 57 66
0.525707505985922 0.207469304492143 2.244000000000000 58 67 76
0.525707505985922 0.219076074017780 2.244000000000000 37 46 55
0.526644596014418 0.231094042908023 2.248000000000000 39 48 57
0.527113141028665 0.242937446259080 2.250000000000000 45 54 63
0.528050231057161 0.255027828149928 2.254000000000000 42 51 60
0.528987321085656 0.267159588898265 2.258000000000000 49 58 67
0.529924411114152 0.279332728504091 2.262000000000000 41 50 59
0.530861501142647 0.291547246967406 2.266000000000000 40 49 58
0.531330046156895 0.303535476319673 2.268000000000000 43 52 61
0.532032863678266 0.315683401442140 2.271000000000000 40 49 58
0.532501408692514 0.327718182009083 2.273000000000000 35 44 55
0.532501408692514 0.339474949893117 2.273000000000000 36 45 54
0.532969953706762 0.351540764603177 2.275000000000000 37 46 55
0.532969953706762 0.363307877201584 2.275000000000000 36 45 56
0.533438498721009 0.375404726054760 2.277000000000000 36 45 54
0.533438498721009 0.387182183367540 2.277000000000000 35 44 53
0.533907043735257 0.399310066363832 2.279000000000000 34 43 52
0.534844133763752 0.411819409186756 2.283000000000000 40 49 58
0.535781223792248 0.424370130867168 2.287000000000000 47 56 67
0.536718313820743 0.436962231405069 2.291000000000000 44 54 65
0.537186858834991 0.449203906259456 2.293000000000000 29 39 48
0.538592493877734 0.462270569053338 2.299000000000000 35 45 54
0.539998128920477 0.475399300133453 2.305000000000000 44 54 66
0.541638036470344 0.488801518841860 2.312000000000000 47 60 70
0.543512216527335 0.502492742250120 2.320000000000000 38 48 59
0.545386396584326 0.516266723373356 2.328000000000000 25 34 45
0.547729121655564 0.530577335038807 2.338000000000000 23 33 42
0.549603301712555 0.544527176306372 2.346000000000000 35 46 52
0.557334294447642 0.564491803488669 2.379000000000000 68 74 74
0.589429627923610 0.610012968703586 2.516000000000000 110 109 93
0.697429253707705 0.752580240055980 2.977000000000000 122 118 89
0.701880431343058 0.772879787976996 2.996000000000000 120 116 87
0.708205789035402 0.795481028782451 3.023000000000000 123 119 90
0.718748051855976 0.823191251755880 3.068000000000000 125 119 89
0.725307682055444 0.846717697195078 3.096000000000000 126 120 90
0.722027866955710 0.858830075246577 3.082000000000000 123 117 87
0.711954149149384 0.862566489359573 3.039000000000000 126 120 90
0.702348976357306 0.866436090154266 2.998000000000000 126 122 91
0.689932533479742 0.866351432975249 2.945000000000000 124 120 89
0.678453180630673 0.866915903591397 2.896000000000000 123 119 88
0.668613735331472 0.869105135603175 2.854000000000000 126 122 91
0.658774290032270 0.870859889611319 2.812000000000000 123 119 90
0.650106207268687 0.873754498044738 2.775000000000000 120 116 87
0.640969579490857 0.875626274360450 2.736000000000000 121 117 88
0.630895861684531 0.875793762015028 2.693000000000000 123 117 87
0.620822143878206 0.875516426951601 2.650000000000000 122 116 86
0.611216971086128 0.875465380999220 2.609000000000000 125 119 89
0.603017433336793 0.877034571387853 2.574000000000000 84 78 58
0.595286440601706 0.878933498031255 2.541000000000000 24 26 17
0.588492537895114 0.881895341044712 2.512000000000000 22 23 17
0.581932907695647 0.884913432684646 2.484000000000000 5 6 4
0.575607550003303 0.888003290022614 2.457000000000000 125 121 88
0.567876557268216 0.888614299726674 2.424000000000000 192 183 142
0.561316927068748 0.890742745930597 2.396000000000000 83 78 55
0.554991569376404 0.892958474904112 2.369000000000000 128 122 92
0.549134756698307 0.895659110847979 2.344000000000000 125 116 87
0.542575126498840 0.896939290473379 2.316000000000000 135 124 94
0.536718313820743 0.899107173627077 2.291000000000000 141 131 98
0.530861501142647 0.901016438921470 2.266000000000000 144 134 101
0.524301870943179 0.901458696682719 2.238000000000000 146 134 101
0.518445058265083 0.902835209186942 2.213000000000000 148 136 103
0.512822518094110 0.904366245104177 2.189000000000000 153 141 107
0.506965705416014 0.905230694246975 2.164000000000000 155 143 109
0.502045982766413 0.907530469477227 2.143000000000000 163 149 114
0.495954897581193 0.907469713986282 2.117000000000000 163 149 114
0.491503719945840 0.910176810829096 2.098000000000000 163 151 115
0.486349724789115 0.911370348924092 2.076000000000000 166 154 118
0.481430002139514 0.912780478718333 2.055000000000000 170 158 122
0.476744551997037 0.914422717283379 2.035000000000000 172 160 124
0.472293374361684 0.916312581690787 2.016000000000000 170 159 120
0.468310741740579 0.918925281499109 1.999000000000000 169 158 119
0.464328109119473 0.921362121163103 1.982000000000000 171 160 121
0.460579749005492 0.924093137884134 1.966000000000000 175 162 124
0.456831388891510 0.926658639175210 1.950000000000000 178 167 128
0.453317301284652 0.929539006952068 1.935000000000000 181 170 129
0.449568941170671 0.931778649740419 1.919000000000000 180 167 126
0.445352036042441 0.932871323838595 1.901000000000000 176 165 124
0.442072220942707 0.935761389027254 1.887000000000000 173 162 123
0.438558133335850 0.938005556870219 1.872000000000000 170 159 120
0.435044045728992 0.940094553997602 1.857000000000000 171 161 125
0.431061413107886 0.941005548291693 1.840000000000000 158 149 118
0.427078780486781 0.941740682441455 1.823000000000000 112 105 81
0.424267510401295 0.944908760313023 1.811000000000000 88 85 70
0.420987695301561 0.946898835351298 1.797000000000000 89 87 77
0.418410697723198 0.950340400851158 1.786000000000000 90 88 78
0.415130882623464 0.952056340958569 1.772000000000000 88 88 78
0.946046658888669 -1.780488034540951 3.951000000000000 186 175 149
0.959695016154337 -1.785443842471492 4.008000000000000 186 175 149
0.960652795611576 -1.766474225523113 4.012000000000000 184 175 148
0.968075586405185 -1.759211612984768 4.043000000000000 189 178 152
0.978371715570514 -1.756787749689103 4.086000000000000 189 178 152
0.986752285821363 -1.750520818940775 4.121000000000000 189 178 152
0.998006194443931 -1.748927122005173 4.168000000000000 190 179 153
1.010217882523739 -1.748504967003916 4.219000000000000 190 179 153
1.021471791146307 -1.745918177488580 4.266000000000000 191 180 154
1.032486254904566 -1.742441095234662 4.312000000000000 191 180 154
1.043740163527134 -1.738887074925523 4.359000000000000 190 178 155
1.054036292692463 -1.733271867246027 4.402000000000000 176 166 145
1.065290201315031 -1.728766133214642 4.449000000000000 172 165 143
1.078459668852079 -1.726841411482511 4.504000000000000 179 169 145
1.091629136389127 -1.724347730459907 4.559000000000000 189 178 152
1.107432497433585 -1.725388717366513 4.625000000000000 194 185 158
1.124193637935282 -1.727218491775692 4.695000000000000 194 185 158
1.135447546557850 -1.719981753150041 4.742000000000000 191 185 157
1.146701455180419 -1.712258812948894 4.789000000000000 193 186 161
1.153166466516788 -1.697002319347720 4.816000000000000 197 191 163
1.167293713511076 -1.692576765947794 4.875000000000000 198 192 164
1.173758724847445 -1.676596142340563 4.902000000000000 198 191 166
0.555990974927737 -0.746136266511439 2.322000000000000 75 73 63
0.552399301963088 -0.729383636761426 2.307000000000000 77 77 69
0.551920412234468 -0.716829031265588 2.305000000000000 79 80 74
0.550962632777228 -0.703683482445391 2.301000000000000 65 66 60
0.549525963591368 -0.689978024443952 2.295000000000000 59 60 56
0.548089294405508 -0.676334634728746 2.289000000000000 57 58 56
0.548089294405508 -0.664495109129733 2.289000000000000 55 57 56
0.548568184134128 -0.653225837426335 2.291000000000000 53 55 54
0.549047073862748 -0.641935876294192 2.293000000000000 48 50 51
0.549525963591368 -0.630625225733305 2.295000000000000 65 57 54
0.550962632777228 -0.620372325248669 2.301000000000000 118 98 89
0.551441522505848 -0.608999606401549 2.303000000000000 114 91 79
0.552399301963088 -0.598124728449437 2.307000000000000 144 116 99
0.554554305741877 -0.588478935663289 2.316000000000000 188 161 138
0.556469864656357 -0.578491120000287 2.324000000000000 159 142 126
0.557906533842217 -0.567933050441671 2.330000000000000 132 120 108
0.559822092756696 -0.557790064063085 2.338000000000000 109 102 92
0.563174320857036 -0.548964740225198 2.352000000000000 113 106 94
0.564371545178586 -0.537940511217260 2.357000000000000 128 115 100
0.563174320857036 -0.524633972021723 2.352000000000000 157 132 98
0.561258761942556 -0.510725497484883 2.344000000000000 211 180 140
0.558385423570837 -0.496048924874214 2.332000000000000 137 124 109
0.556948754384977 -0.482741738376106 2.326000000000000 88 87 82
0.553357081420327 -0.467675297068766 2.311000000000000 56 59 56
0.551920412234468 -0.454538798357799 2.305000000000000 42 47 45
0.550004853319988 -0.441080318896151 2.297000000000000 46 51 49
0.548089294405508 -0.427704597149481 2.289000000000000 48 53 51
0.546652625219648 -0.414774992725959 2.283000000000000 49 54 52
0.545694845762408 -0.402260471482467 2.279000000000000 51 53 52
0.544737066305169 -0.389787329096465 2.275000000000000 51 53 52
0.543779286847929 -0.377355565567952 2.271000000000000 51 53 52
0.543539841983619 -0.365448152022949 2.270000000000000 51 53 52
0.543060952254999 -0.353395265174163 2.268000000000000 47 52 50
0.543060952254999 -0.341664359076059 2.268000000000000 43 48 48
0.542582062526379 -0.329642506370390 2.266000000000000 40 45 45
0.542103172797759 -0.317641343093466 2.264000000000000 39 44 44
0.542103172797759 -0.305931126424107 2.264000000000000 38 43 43
0.542103172797759 -0.294220909754747 2.264000000000000 36 41 43
0.542103172797759 -0.282510693085387 2.264000000000000 35 40 42
0.542103172797759 -0.270800476416027 2.264000000000000 34 39 41
0.542103172797759 -0.259090259746667 2.264000000000000 35 40 40
0.542103172797759 -0.247380043077308 2.264000000000000 35 40 40
0.542103172797759 -0.235669826407948 2.264000000000000 36 41 41
0.542103172797759 -0.223959609738588 2.264000000000000 36 41 41
0.542103172797759 -0.212249393069228 2.264000000000000 34 39 39
0.542582062526379 -0.200716331149338 2.266000000000000 34 39 39
0.542103172797759 -0.188828959730509 2.264000000000000 33 38 38
0.542103172797759 -0.177118743061149 2.264000000000000 32 37 37
0.542103172797759 -0.165408526391789 2.264000000000000 33 38 38
0.542103172797759 -0.153698309722430 2.264000000000000 31 36 36
0.542103172797759 -0.141988093053070 2.264000000000000 31 36 36
0.542103172797759 -0.130277876383710 2.264000000000000 32 37 37
0.542103172797759 -0.118567659714350 2.264000000000000 31 36 36
0.542103172797759 -0.106857443044990 2.264000000000000 31 36 36
0.542103172797759 -0.095147226375631 2.264000000000000 29 34 34
0.541624283069139 -0.083363302100523 2.262000000000000 27 32 32
0.541624283069139 -0.071663430145536 2.262000000000000 25 30 30
0.541624283069139 -0.059963558190548 2.262000000000000 26 31 31
0.541624283069139 -0.048263686235561 2.262000000000000 27 32 32
0.541624283069139 -0.036563814280573 2.262000000000000 30 35 35
0.541624283069139 -0.024863942325586 2.262000000000000 30 35 35
0.541145393340519 -0.013152431051084 2.260000000000000 26 31 31
0.541145393340519 -0.001462903810468 2.260000000000000 24 29 29
0.540666503611899 0.010217573320917 2.258000000000000 26 31 31
0.540666503611899 0.021896755847160 2.258000000000000 26 31 31
0.540187613883279 0.033546198835428 2.256000000000000 26 31 31
0.540187613883279 0.045215036647299 2.256000000000000 28 33 33
0.540187613883279 0.056883874459170 2.256000000000000 27 32 32
0.539708724154659 0.068491938589949 2.254000000000000 26 31 31
0.539708724154659 0.080150431687448 2.254000000000000 27 32 32
0.539229834426039 0.091727461675111 2.252000000000000 21 26 26
0.539229834426039 0.103375610058237 2.252000000000000 27 32 32
0.538750944697420 0.114921605902784 2.250000000000000 24 29 29
0.538750944697420 0.126559409571538 2.250000000000000 24 29 29
0.537793165240180 0.137951529305643 2.246000000000000 27 33 35
0.537793165240180 0.149568643545652 2.246000000000000 37 46 57
0.537793165240180 0.161185757785662 2.246000000000000 47 56 67
0.537314275511560 0.172648995915230 2.244000000000000 52 61 70
0.537314275511560 0.184255765440868 2.244000000000000 48 57 66
0.537314275511560 0.195862534966505 2.244000000000000 53 62 71
0.537793165240180 0.207654214745701 2.246000000000000 54 63 72
0.538272054968800 0.219466583953641 2.248000000000000 39 48 57
0.539229834426039 0.231505242272628 2.252000000000000 41 50 61
0.540666503611899 0.243801223845779 2.258000000000000 49 58 70
0.542103172797759 0.256159273705163 2.264000000000000 50 59 70
0.543539841983619 0.268579391850780 2.270000000000000 44 53 64
0.544258176576549 0.280691110472944 2.273000000000000 49 59 70
0.545215956033789 0.292962524865306 2.277000000000000 51 61 72
0.545694845762408 0.305007650146621 2.279000000000000 51 64 74
0.547610404676888 0.317907502905405 2.287000000000000 55 65 76
0.548568184134128 0.330313398584606 2.291000000000000 56 65 74
0.550004853319988 0.343059375232948 2.297000000000000 57 67 76
0.550962632777228 0.355558373341499 2.301000000000000 59 69 80
0.551441522505848 0.367779358767142 2.303000000000000 59 69 78
0.552399301963088 0.380350769876299 2.307000000000000 61 70 79
0.553357081420327 0.392963559842944 2.311000000000000 65 74 83
0.553596526284637 0.405092090141808 2.312000000000000 59 68 77
0.555033195470497 0.418132891149759 2.318000000000000 42 51 62
0.556469864656357 0.431235760443943 2.324000000000000 36 45 54
0.559343203028076 0.445545077504252 2.336000000000000 32 41 50
0.562216541399796 0.459978531137027 2.348000000000000 31 40 49
0.564850434907206 0.474335046714582 2.359000000000000 27 36 45
0.567244883550305 0.488599107165358 2.369000000000000 22 31 40
0.570118221922025 0.503389453443975 2.381000000000000 21 31 37
0.573709894886674 0.518953711392796 2.396000000000000 8 18 24
0.578019902444254 0.535338432226496 2.414000000000000 7 17 23
0.584484913780623 0.553951785641458 2.441000000000000 9 19 25
0.593583818624401 0.575397642823315 2.479000000000000 12 22 28
0.596696601860431 0.591304570951561 2.492000000000000 15 25 29
0.603401058061110 0.610982782644291 2.520000000000000 45 51 51
0.713306250779383 0.753085836455077 2.979000000000000 104 106 97
0.725278493994882 0.781392816349240 3.029000000000000 112 112 102
0.735574623160210 0.808375031564568 3.072000000000000 121 120 106
0.735574623160210 0.824264512840308 3.072000000000000 122 120 99
0.740363520446409 0.845623746681906 3.092000000000000 122 117 91
0.740363520446409 0.861616675101368 3.092000000000000 122 116 86
0.733180174517110 0.869094633240873 3.062000000000000 125 119 89
0.720250151844372 0.869326137152779 3.008000000000000 127 123 92
0.706601794578704 0.868116495317473 2.951000000000000 125 121 90
0.693192882177347 0.866616554177174 2.895000000000000 124 120 89
0.682417863283398 0.867887048517536 2.850000000000000 126 122 93
0.673079513575309 0.870550195482723 2.811000000000000 126 122 93
0.663501719002911 0.872495032101611 2.771000000000000 122 118 89
0.654163369294822 0.874346118988578 2.732000000000000 120 116 85
0.643867240129494 0.874492917214412 2.689000000000000 121 117 86
0.634050000692785 0.874855659836920 2.648000000000000 121 115 85
0.624711650984697 0.875465380999220 2.609000000000000 123 116 91
0.616331080733848 0.877034571387853 2.574000000000000 60 57 44
0.608429400211619 0.878933498031255 2.541000000000000 21 22 18
0.601964388875250 0.882597487016882 2.514000000000000 19 20 16
0.595259932674571 0.885625923371188 2.486000000000000 7 8 4
0.588316031609582 0.888003290022614 2.457000000000000 131 123 89
0.580893240815973 0.889347479841960 2.426000000000000 216 205 154
0.574188784615294 0.891486270760255 2.398000000000000 104 97 72
0.567723773278925 0.893712344448142 2.371000000000000 128 122 92
0.561258761942556 0.895659110847979 2.344000000000000 129 120 89
0.554554305741877 0.896939290473379 2.316000000000000 134 125 94
0.548568184134128 0.899107173627077 2.291000000000000 140 129 99
0.542582062526379 0.901016438921470 2.266000000000000 143 132 102
0.536356496054320 0.902264289798611 2.240000000000000 143 132 102
0.530370374446571 0.903651147017206 2.215000000000000 144 133 103
0.524144807974512 0.904366245104177 2.189000000000000 147 137 104
0.518158686366763 0.905230694246975 2.164000000000000 154 142 109
0.512651454487633 0.906683497503847 2.141000000000000 162 150 116
0.507383667472814 0.908327030674035 2.119000000000000 163 149 114
0.502355325322305 0.910176810829096 2.098000000000000 162 150 114
0.497087538307486 0.911370348924092 2.076000000000000 163 151 115
0.492059196156977 0.912780478718333 2.055000000000000 166 154 120
0.487270298870777 0.914422717283379 2.035000000000000 168 156 120
0.482720846448888 0.916312581690787 2.016000000000000 166 154 118
0.478410838891309 0.918465589012116 1.998000000000000 164 154 118
0.474579721062349 0.921362121163103 1.982000000000000 165 155 119
0.470748603233390 0.924093137884134 1.966000000000000 172 160 124
0.466917485404430 0.926658639175210 1.950000000000000 173 162 123
0.463325812439781 0.929539006952068 1.935000000000000 173 162 123
0.459015804882201 0.930807541194572 1.917000000000000 178 167 126
0.455184687053242 0.932871323838595 1.901000000000000 179 168 126
0.451353569224283 0.934769591052662 1.885000000000000 173 164 125
0.447761896259633 0.937003414181256 1.870000000000000 169 160 129
0.444170223294984 0.939082066594266 1.855000000000000 147 143 120
0.440578550330334 0.941005548291693 1.840000000000000 101 100 84
0.436268542772755 0.941224094025415 1.822000000000000 86 87 75
0.433395204401035 0.944386999539796 1.810000000000000 88 88 78
0.430042976300696 0.946371902220885 1.796000000000000 90 89 77
0.427648527657596 0.950340400851158 1.786000000000000 90 89 77
0.424535744421567 0.952593618803354 1.773000000000000 89 88 76
0.966971876573993 -1.781389319296477 3.953000000000000 187 176 150
0.981404292642262 -1.787225722553799 4.012000000000000 187 176 150
0.982382761528246 -1.768235416176676 4.016000000000000 184 175 148
0.989965895394624 -1.760952114209586 4.047000000000000 189 178 152
0.999505967032972 -1.756787749689103 4.086000000000000 189 178 152
1.008067569785334 -1.750520818940775 4.121000000000000 189 178 152
1.019564579195650 -1.748927122005173 4.168000000000000 190 179 153
1.031061588605966 -1.746847223494076 4.215000000000000 190 179 153
1.043537066902265 -1.745918177488580 4.266000000000000 191 180 154
1.054789459091085 -1.742441095234662 4.312000000000000 191 180 154
1.066286468501400 -1.738887074925523 4.359000000000000 189 177 154
1.078761946797701 -1.736421838835751 4.410000000000000 168 158 137
1.090258956208016 -1.731874725946878 4.457000000000000 170 163 141
1.104691372276285 -1.731442232294631 4.516000000000000 180 170 146
1.118879171123057 -1.730021171117266 4.574000000000000 189 178 152
1.135268524963294 -1.731357629686051 4.641000000000000 186 177 150
1.152391730468020 -1.733104646380253 4.711000000000000 187 178 151
1.165845677650304 -1.728686848484414 4.766000000000000 187 181 153
1.176364218174635 -1.719409611917150 4.809000000000000 187 180 155
1.187616610363455 -1.710744655405561 4.855000000000000 189 183 155
1.199113619773770 -1.701951037266889 4.902000000000000 188 182 154
1.203027495317708 -1.682068508370235 4.918000000000000 187 180 155
0.560907288890505 -0.724957381488492 2.293000000000000 69 69 61
0.563842695548458 -0.716829031265588 2.305000000000000 79 80 74
0.565555016098930 -0.707047462587459 2.312000000000000 76 77 71
0.566533484984915 -0.696291548850628 2.316000000000000 62 63 59
0.563842695548458 -0.681062181323617 2.305000000000000 57 58 56
0.563353461105466 -0.668559299399640 2.303000000000000 56 58 57
0.562374992219482 -0.655506853008793 2.299000000000000 56 58 57
0.561885757776489 -0.643055694656677 2.297000000000000 50 52 53
0.562374992219482 -0.631724354667045 2.299000000000000 94 86 83
0.563353461105466 -0.620911545001167 2.303000000000000 124 104 95
0.563842695548458 -0.609528481439674 2.305000000000000 117 94 82
0.565555016098930 -0.599421054258820 2.312000000000000 169 141 124
0.567022719427907 -0.588987121272671 2.318000000000000 177 150 127
0.569958126085860 -0.579984642685314 2.330000000000000 85 68 52
0.572893532743813 -0.570858027525490 2.342000000000000 63 51 39
0.573872001629797 -0.559698669928143 2.346000000000000 58 51 41
0.579987432167199 -0.553399404368174 2.371000000000000 60 53 41
0.605916857645783 -0.565328233468457 2.477000000000000 61 48 33
0.600535278772869 -0.547609014163830 2.455000000000000 174 149 115
0.575339704958774 -0.512468587919985 2.352000000000000 195 164 124
0.570447360528852 -0.496048924874214 2.332000000000000 107 94 79
0.568490422756883 -0.482326655196075 2.324000000000000 79 78 73
0.564821164434442 -0.467270558603107 2.309000000000000 46 49 46
0.562864226662474 -0.453750010855226 2.301000000000000 46 51 49
0.560907288890505 -0.440312220822322 2.293000000000000 48 53 51
0.558950351118536 -0.426957188504397 2.285000000000000 49 54 52
0.557482647789560 -0.414048273509619 2.279000000000000 49 54 52
0.556504178903576 -0.401554441694872 2.275000000000000 51 53 52
0.555525710017591 -0.389101988737614 2.271000000000000 51 53 52
0.555281092796095 -0.377189402835425 2.270000000000000 51 53 52
0.554302623910111 -0.364804190521587 2.266000000000000 50 52 51
0.554302623910111 -0.353083629137855 2.266000000000000 44 49 47
0.553813389467119 -0.341061776432186 2.264000000000000 41 46 46
0.553813389467119 -0.329351559762826 2.264000000000000 39 44 44
0.553813389467119 -0.317641343093466 2.264000000000000 38 43 43
0.553324155024127 -0.305660869245287 2.262000000000000 36 41 41
0.553324155024127 -0.293960997290299 2.262000000000000 35 40 42
0.553324155024127 -0.282261125335312 2.262000000000000 34 39 41
0.553324155024127 -0.270561253380324 2.262000000000000 34 39 41
0.553324155024127 -0.258861381425337 2.262000000000000 34 39 39
0.553324155024127 -0.247161509470349 2.262000000000000 33 38 38
0.553813389467119 -0.235669826407948 2.264000000000000 33 38 38
0.553813389467119 -0.223959609738588 2.264000000000000 34 39 39
0.553813389467119 -0.212249393069228 2.264000000000000 34 39 39
0.554302623910111 -0.200716331149338 2.266000000000000 34 39 39
0.554302623910111 -0.188995769765606 2.266000000000000 34 39 39
0.554302623910111 -0.177275208381874 2.266000000000000 33 38 38
0.554302623910111 -0.165554646998142 2.266000000000000 32 37 37
0.554302623910111 -0.153834085614410 2.266000000000000 32 37 37
0.554302623910111 -0.142113524230678 2.266000000000000 32 37 37
0.554302623910111 -0.130392962846946 2.266000000000000 32 37 37
0.554302623910111 -0.118672401463214 2.266000000000000 31 36 36
0.554302623910111 -0.106951840079482 2.266000000000000 31 36 36
0.554302623910111 -0.095231278695750 2.266000000000000 30 35 35
